# .PCD v0.7 - Point Cloud Data file format
VERSION 0.7
FIELDS x y z rgb
SIZE 4 4 4 4
TYPE F F F F
COUNT 1 1 1 1
WIDTH 1004
HEIGHT 1
VIEWPOINT 0 0 0 1 0 0 0
POINTS 1004
DATA ascii
0.40994483 -0.33080754 0.74447858 9.3813359e-39
0.41238064 -0.33544663 0.74503762 9.3813359e-39
0.40693712 -0.32502797 0.74525863 9.3813359e-39
0.39940253 -0.31095091 0.74602443 9.3813359e-39
0.40210348 -0.31585407 0.74454308 9.3813359e-39
0.39638168 -0.30517271 0.74604195 9.3813359e-39
0.3962442 -0.29474592 0.74458516 9.3813359e-39
0.40084791 -0.29063651 0.7460503 9.3813359e-39
0.40546069 -0.28578931 0.74491918 9.3813359e-39
0.41104394 -0.28086978 0.74609989 9.3813359e-39
0.40367916 -0.27489927 0.74238026 9.3813359e-39
0.416186 -0.27792373 0.74532062 9.3813359e-39
0.425026 -0.27389723 0.74497354 9.3813359e-39
0.43261465 -0.27098837 0.74507207 9.3813359e-39
0.43765119 -0.26914024 0.74527597 9.3813359e-39
0.44253266 -0.26736262 0.74442238 9.3813359e-39
0.44372666 -0.39476806 0.7551176 9.3813359e-39
0.43742487 -0.38416129 0.75506991 9.3813359e-39
0.44032431 -0.38934577 0.75798053 9.3813359e-39
0.432731 -0.37493008 0.75481075 9.3813359e-39
0.42762026 -0.36497399 0.75514537 9.3813359e-39
0.42252618 -0.35508737 0.75437772 9.3813359e-39
0.41751325 -0.34530309 0.75476736 9.3813359e-39
0.40967268 -0.33064836 0.75444555 9.3813359e-39
0.41261667 -0.33614472 0.75484091 9.3813359e-39
0.40674344 -0.32509437 0.75500721 9.3813359e-39
0.39935961 -0.31109154 0.75563252 9.3813359e-39
0.40189406 -0.31585747 0.75480753 9.3813359e-39
0.41046399 -0.31138697 0.75257725 9.3813359e-39
0.39676839 -0.30459338 0.75552255 9.3813359e-39
0.39529571 -0.29526579 0.75498152 9.3813359e-39
0.40106076 -0.29067361 0.75050014 9.3813359e-39
0.39853719 -0.28939512 0.75776583 9.3813359e-39
0.4053995 -0.28591475 0.75436002 9.3813359e-39
0.4115485 -0.2811743 0.75428557 9.3813359e-39
0.41624865 -0.27796826 0.75470257 9.3813359e-39
0.42492405 -0.2742759 0.75477058 9.3813359e-39
0.43274969 -0.27114779 0.75501853 9.3813359e-39
0.43768793 -0.26916075 0.75535703 9.3813359e-39
0.44198146 -0.2675254 0.75430018 9.3813359e-39
0.44349948 -0.39483878 0.76504582 9.3813359e-39
0.43726221 -0.38449618 0.76527339 9.3813359e-39
0.44048232 -0.38998038 0.76692343 9.3813359e-39
0.4299027 -0.37051022 0.76869094 9.3813359e-39
0.43240002 -0.37542233 0.76500648 9.3813359e-39
0.42741475 -0.36509374 0.76506633 9.3813359e-39
0.41978556 -0.35025221 0.76322579 9.3813359e-39
0.42242312 -0.35542256 0.76514322 9.3813359e-39
0.41703206 -0.34512788 0.7649647 9.3813359e-39
0.40941739 -0.33075365 0.76533622 9.3813359e-39
0.4120813 -0.33579034 0.76493603 9.3813359e-39
0.40620312 -0.32452494 0.76488525 9.3813359e-39
0.39952698 -0.31090149 0.76474243 9.3813359e-39
0.40173662 -0.31585303 0.7652446 9.3813359e-39
0.39780107 -0.30497491 0.76501411 9.3813359e-39
0.39529818 -0.29432571 0.76456857 9.3813359e-39
0.39760131 -0.28867069 0.76561624 9.3813359e-39
0.40513933 -0.2841219 0.76487535 9.3813359e-39
0.41121513 -0.28060335 0.76485515 9.3813359e-39
0.41589102 -0.27808866 0.76485431 9.3813359e-39
0.42483565 -0.27403721 0.76522464 9.3813359e-39
0.43212831 -0.27097255 0.76449108 9.3813359e-39
0.43726754 -0.26880011 0.76558077 9.3813359e-39
0.44169331 -0.26706833 0.76494443 9.3813359e-39
0.44339636 -0.39487761 0.77539051 9.3813359e-39
0.42650113 -0.38361949 0.77247238 9.3813359e-39
0.43740532 -0.38438994 0.77472878 9.3813359e-39
0.44028026 -0.38937649 0.77510083 9.3813359e-39
0.42983952 -0.37053567 0.77556455 9.3813359e-39
0.43233135 -0.37521255 0.77497572 9.3813359e-39
0.42703441 -0.36501381 0.77516627 9.3813359e-39
0.41953585 -0.35054803 0.77424842 9.3813359e-39
0.42206958 -0.35544497 0.77487743 9.3813359e-39
0.41667944 -0.34515041 0.7752043 9.3813359e-39
0.40938747 -0.33105436 0.77568418 9.3813359e-39
0.4119491 -0.3360149 0.77515996 9.3813359e-39
0.40643036 -0.32526213 0.77456307 9.3813359e-39
0.39860711 -0.31256559 0.77568185 9.3813359e-39
0.40185329 -0.31628174 0.77486002 9.3813359e-39
0.39761007 -0.30504522 0.77434117 9.3813359e-39
0.40596035 -0.30973881 0.77631414 9.3813359e-39
0.39501622 -0.29366472 0.77485698 9.3813359e-39
0.40560314 -0.2909224 0.77832824 9.3813359e-39
0.39831296 -0.28893524 0.77485609 9.3813359e-39
0.40468544 -0.28471619 0.77496296 9.3813359e-39
0.41093704 -0.28073534 0.77567232 9.3813359e-39
0.41598251 -0.27806762 0.77517128 9.3813359e-39
0.42492497 -0.27406663 0.77529728 9.3813359e-39
0.43201044 -0.27092287 0.77504414 9.3813359e-39
0.43699962 -0.2687552 0.77535498 9.3813359e-39
0.4415383 -0.2668058 0.77536988 9.3813359e-39
0.44333532 -0.39521232 0.78488708 9.3813359e-39
0.43732387 -0.38444102 0.78467309 9.3813359e-39
0.44012517 -0.38971245 0.78750306 9.3813359e-39
0.42952132 -0.37036011 0.78601742 9.3813359e-39
0.43232122 -0.37545744 0.78496128 9.3813359e-39
0.42684871 -0.36517513 0.78518683 9.3813359e-39
0.41860512 -0.35314971 0.78552049 9.3813359e-39
0.4221051 -0.35600552 0.78509271 9.3813359e-39
0.41639057 -0.34493837 0.78499126 9.3813359e-39
0.40928665 -0.3311584 0.78591478 9.3813359e-39
0.41180432 -0.3360256 0.78520769 9.3813359e-39
0.40607196 -0.3248606 0.78446883 9.3813359e-39
0.3993279 -0.3118352 0.78442913 9.3813359e-39
0.40172124 -0.31648183 0.78557205 9.3813359e-39
0.39605021 -0.30512598 0.78530681 9.3813359e-39
0.39504212 -0.29318026 0.7853744 9.3813359e-39
0.39891383 -0.28910801 0.78469902 9.3813359e-39
0.40488628 -0.2847324 0.78533787 9.3813359e-39
0.41144049 -0.28058445 0.78610915 9.3813359e-39
0.41615707 -0.27852938 0.7846632 9.3813359e-39
0.42486334 -0.27506569 0.78498513 9.3813359e-39
0.43352705 -0.27153754 0.78501457 9.3813359e-39
0.43860927 -0.26938999 0.78468132 9.3813359e-39
0.44195411 -0.26798099 0.78469032 9.3813359e-39
0.44268981 -0.39479998 0.79496861 9.3813359e-39
0.43706843 -0.38505128 0.79516208 9.3813359e-39
0.42954478 -0.37108111 0.79651517 9.3813359e-39
0.43204728 -0.37580681 0.79490888 9.3813359e-39
0.44164601 -0.37902024 0.79624128 9.3813359e-39
0.42633006 -0.36472172 0.79475737 9.3813359e-39
0.41950312 -0.35153937 0.7949838 9.3813359e-39
0.42199686 -0.35635424 0.79518205 9.3813359e-39
0.41606838 -0.34520611 0.79521674 9.3813359e-39
0.40904012 -0.33148214 0.79551888 9.3813359e-39
0.41160998 -0.33639938 0.79498494 9.3813359e-39
0.40583959 -0.3251425 0.79512829 9.3813359e-39
0.39908046 -0.31187478 0.79445428 9.3813359e-39
0.40244761 -0.31738475 0.79560137 9.3813359e-39
0.39568177 -0.30538651 0.79507196 9.3813359e-39
0.39530694 -0.29420379 0.79519111 9.3813359e-39
0.39992574 -0.28960383 0.7942102 9.3813359e-39
0.40467468 -0.28543311 0.79510105 9.3813359e-39
0.41171768 -0.28074646 0.79506969 9.3813359e-39
0.41672668 -0.27869171 0.79498899 9.3813359e-39
0.42492113 -0.27521455 0.79476851 9.3813359e-39
0.43313 -0.27169335 0.79333937 9.3813359e-39
0.44456035 -0.27111307 0.79398984 9.3813359e-39
0.43734834 -0.26850387 0.79589522 9.3813359e-39
0.44178718 -0.26873034 0.79302967 9.3813359e-39
0.43982732 -0.39034325 0.80511951 9.3813359e-39
0.44271868 -0.39533123 0.80514008 9.3813359e-39
0.43684113 -0.38513896 0.80493814 9.3813359e-39
0.42834789 -0.37149769 0.805251 9.3813359e-39
0.43217367 -0.37673858 0.80530483 9.3813359e-39
0.42613819 -0.36502528 0.80487162 9.3813359e-39
0.41906601 -0.3515802 0.80512512 9.3813359e-39
0.42178488 -0.35665694 0.80514342 9.3813359e-39
0.4154315 -0.3447336 0.80515128 9.3813359e-39
0.40904474 -0.33245662 0.80493993 9.3813359e-39
0.41139954 -0.33706525 0.80478013 9.3813359e-39
0.40542465 -0.32531106 0.80475301 9.3813359e-39
0.39866918 -0.3121137 0.80376178 9.3813359e-39
0.40202022 -0.31670582 0.80565757 9.3813359e-39
0.39434177 -0.30426639 0.80582088 9.3813359e-39
0.3960959 -0.29523414 0.80441475 9.3813359e-39
0.40074617 -0.29060134 0.80648237 9.3813359e-39
0.39846843 -0.28318819 0.80041134 9.3813359e-39
0.40523633 -0.28557444 0.80456448 9.3813359e-39
0.41121924 -0.2806578 0.80518454 9.3813359e-39
0.41636115 -0.27783564 0.80546969 9.3813359e-39
0.42439905 -0.27290365 0.80593586 9.3813359e-39
0.42926264 -0.26971325 0.8060385 9.3813359e-39
0.43391424 -0.26833436 0.80629617 9.3813359e-39
0.43963528 -0.39033094 0.81652045 9.3813359e-39
0.44273895 -0.39572307 0.81498277 9.3813359e-39
0.4362084 -0.38473481 0.81492889 9.3813359e-39
0.42921749 -0.37144592 0.81502903 9.3813359e-39
0.43163288 -0.37618431 0.81551069 9.3813359e-39
0.42595878 -0.36499703 0.81459033 9.3813359e-39
0.41913244 -0.35185534 0.8149665 9.3813359e-39
0.42181206 -0.35687315 0.81510973 9.3813359e-39
0.4154917 -0.34512681 0.81491208 9.3813359e-39
0.40860733 -0.33229494 0.81473416 9.3813359e-39
0.41139695 -0.33751658 0.81571025 9.3813359e-39
0.40472212 -0.32486495 0.81531072 9.3813359e-39
0.39868349 -0.31250566 0.81517601 9.3813359e-39
0.4010182 -0.31733865 0.8162607 9.3813359e-39
0.3955192 -0.30466324 0.81531161 9.3813359e-39
0.39433783 -0.29512498 0.81514126 9.3813359e-39
0.39822099 -0.2885671 0.81764156 9.3813359e-39
0.40501517 -0.28448704 0.8152051 9.3813359e-39
0.41125047 -0.28071073 0.81518817 9.3813359e-39
0.41618249 -0.27782384 0.81507474 9.3813359e-39
0.42489377 -0.27337742 0.81489921 9.3813359e-39
0.43218803 -0.27068663 0.81459743 9.3813359e-39
0.43648329 -0.26876611 0.81436133 9.3813359e-39
0.44051313 -0.26761061 0.81259322 9.3813359e-39
0.43974721 -0.39074641 0.82594782 9.3813359e-39
0.44290039 -0.39514843 0.82631022 9.3813359e-39
0.45404345 -0.39122441 0.82731491 9.3813359e-39
0.43694174 -0.38482824 0.8260228 9.3813359e-39
0.44033265 -0.389036 0.82923412 9.3813359e-39
0.42923567 -0.37140909 0.82559443 9.3813359e-39
0.43222111 -0.37647972 0.8262217 9.3813359e-39
0.42600861 -0.36489272 0.82487559 9.3813359e-39
0.41952968 -0.35154971 0.82445747 9.3813359e-39
0.42189717 -0.35630241 0.82500106 9.3813359e-39
0.41630548 -0.34523806 0.82512832 9.3813359e-39
0.40878868 -0.33201221 0.82411838 9.3813359e-39
0.41176522 -0.3371726 0.82565951 9.3813359e-39
0.40508333 -0.32436118 0.82531387 9.3813359e-39
0.39963791 -0.31136841 0.82164538 9.3813359e-39
0.4017638 -0.31536967 0.82520556 9.3813359e-39
0.39785796 -0.30503091 0.82492906 9.3813359e-39
0.39513257 -0.29403037 0.82545131 9.3813359e-39
0.39808464 -0.28876612 0.82501221 9.3813359e-39
0.40518618 -0.28455004 0.824884 9.3813359e-39
0.41185388 -0.28082335 0.82499135 9.3813359e-39
0.41653436 -0.27784681 0.82508004 9.3813359e-39
0.42441458 -0.27306971 0.82560092 9.3813359e-39
0.43077523 -0.27024013 0.82149172 9.3813359e-39
0.4295429 -0.26983801 0.82722133 9.3813359e-39
0.43351871 -0.26805732 0.82575905 9.3813359e-39
0.44626784 -0.39480352 0.83479476 9.3813359e-39
0.45049155 -0.39917144 0.83830422 9.3813359e-39
0.43848965 -0.38255838 0.83308774 9.3813359e-39
0.4420166 -0.3863461 0.83600825 9.3813359e-39
0.42977464 -0.37036094 0.831967 9.3813359e-39
0.43493587 -0.37511745 0.83559036 9.3813359e-39
0.42748025 -0.3640931 0.83480978 9.3813359e-39
0.43190232 -0.3654764 0.83852464 9.3813359e-39
0.44252074 -0.36090076 0.8365317 9.3813359e-39
0.47838947 -0.3608616 0.83530217 9.3813359e-39
0.4947443 -0.36889738 0.83911014 9.3813359e-39
0.41968277 -0.35069469 0.83237565 9.3813359e-39
0.42512822 -0.35466477 0.83634979 9.3813359e-39
0.43099597 -0.35642037 0.8393482 9.3813359e-39
0.41775176 -0.3443532 0.83474177 9.3813359e-39
0.42425701 -0.34528601 0.83816403 9.3813359e-39
0.47914326 -0.34106392 0.83831698 9.3813359e-39
0.48267201 -0.3453806 0.8371684 9.3813359e-39
0.40924615 -0.33166033 0.8329649 9.3813359e-39
0.41511089 -0.33489054 0.83591133 9.3813359e-39
0.42278039 -0.33544478 0.83876115 9.3813359e-39
0.47654453 -0.33559334 0.83643174 9.3813359e-39
0.40697265 -0.32446229 0.83441257 9.3813359e-39
0.41506365 -0.3251422 0.83757955 9.3813359e-39
0.42160493 -0.32556438 0.83946699 9.3813359e-39
0.46630049 -0.32203791 0.83895618 9.3813359e-39
0.47157428 -0.32672143 0.83638102 9.3813359e-39
0.40493947 -0.3147921 0.83616656 9.3813359e-39
0.41419628 -0.31608698 0.83902812 9.3813359e-39
0.42134687 -0.31735966 0.83654439 9.3813359e-39
0.45925727 -0.31368601 0.8393622 9.3813359e-39
0.46317026 -0.31569526 0.83768594 9.3813359e-39
0.47481668 -0.31895548 0.83647764 9.3813359e-39
0.39886144 -0.30312377 0.83479017 9.3813359e-39
0.40340862 -0.30557492 0.83856827 9.3813359e-39
0.41191998 -0.30033639 0.83991182 9.3813359e-39
0.45741513 -0.30619863 0.83850944 9.3813359e-39
0.4610697 -0.30840537 0.83616447 9.3813359e-39
0.3982372 -0.29591784 0.83355945 9.3813359e-39
0.40444475 -0.29464293 0.83781141 9.3813359e-39
0.41414729 -0.29471013 0.83920258 9.3813359e-39
0.44837171 -0.29093477 0.83995843 9.3813359e-39
0.45462829 -0.29861882 0.836142 9.3813359e-39
0.39939913 -0.28951904 0.83088988 9.3813359e-39
0.40536237 -0.28620851 0.83452868 9.3813359e-39
0.41445345 -0.28436583 0.83769399 9.3813359e-39
0.42061841 -0.28312391 0.83978683 9.3813359e-39
0.43983319 -0.28008276 0.83985364 9.3813359e-39
0.44451365 -0.28398034 0.8392033 9.3813359e-39
0.41701984 -0.27844727 0.83379984 9.3813359e-39
0.42516986 -0.27556312 0.83546847 9.3813359e-39
0.43461108 -0.27400228 0.83687341 9.3813359e-39
0.44166586 -0.27613357 0.83765715 9.3813359e-39
0.43537185 -0.26895458 0.83185303 9.3813359e-39
0.4484129 -0.39255226 0.8413285 9.3813359e-39
0.45511201 -0.39508769 0.84242409 9.3813359e-39
0.4651207 -0.39471319 0.84359837 9.3813359e-39
0.47473204 -0.39514196 0.84493583 9.3813359e-39
0.48443258 -0.39494172 0.84611934 9.3813359e-39
0.49400225 -0.39405453 0.84496647 9.3813359e-39
0.50149029 -0.39103031 0.84332556 9.3813359e-39
0.44615632 -0.38432249 0.84239793 9.3813359e-39
0.45487604 -0.38507184 0.84350812 9.3813359e-39
0.46492383 -0.3850489 0.84446824 9.3813359e-39
0.47507313 -0.38508576 0.84576547 9.3813359e-39
0.48512387 -0.38465703 0.84569567 9.3813359e-39
0.49530467 -0.38519523 0.84415084 9.3813359e-39
0.50180131 -0.3866016 0.8429836 9.3813359e-39
0.43811408 -0.37360054 0.84147888 9.3813359e-39
0.44479963 -0.37509796 0.84333378 9.3813359e-39
0.45512855 -0.37494826 0.8443982 9.3813359e-39
0.46510866 -0.3748779 0.84533334 9.3813359e-39
0.4745698 -0.37509951 0.84589231 9.3813359e-39
0.48480311 -0.37514529 0.8451044 9.3813359e-39
0.4932951 -0.3754898 0.8439219 9.3813359e-39
0.43649703 -0.36483839 0.84188277 9.3813359e-39
0.44461855 -0.36505032 0.84366649 9.3813359e-39
0.45452583 -0.36484337 0.84502482 9.3813359e-39
0.46483779 -0.36495936 0.84564281 9.3813359e-39
0.47485483 -0.36491266 0.84538114 9.3813359e-39
0.48466411 -0.36510754 0.84447557 9.3813359e-39
0.4909122 -0.36819121 0.84391844 9.3813359e-39
0.43540499 -0.35480163 0.84195185 9.3813359e-39
0.44446677 -0.35501987 0.84385592 9.3813359e-39
0.45470792 -0.354873 0.84501338 9.3813359e-39
0.46487454 -0.35495639 0.84530443 9.3813359e-39
0.47511828 -0.35509557 0.8447476 9.3813359e-39
0.48285323 -0.35576499 0.84387648 9.3813359e-39
0.42885211 -0.34285608 0.84052008 9.3813359e-39
0.43459886 -0.34505489 0.84234083 9.3813359e-39
0.44448268 -0.34498441 0.84393978 9.3813359e-39
0.45484352 -0.34497017 0.84474623 9.3813359e-39
0.46544793 -0.34508565 0.84466237 9.3813359e-39
0.47446436 -0.34540793 0.84403646 9.3813359e-39
0.48101044 -0.34812006 0.84223354 9.3813359e-39
0.42757443 -0.33461496 0.84097308 9.3813359e-39
0.43460763 -0.33489284 0.84269851 9.3813359e-39
0.4444032 -0.33495593 0.84386814 9.3813359e-39
0.45442507 -0.33532897 0.84441733 9.3813359e-39
0.46451613 -0.33505705 0.84407097 9.3813359e-39
0.47188911 -0.33679676 0.84305644 9.3813359e-39
0.42608529 -0.32468989 0.8414005 9.3813359e-39
0.43447059 -0.32519016 0.8430118 9.3813359e-39
0.44456396 -0.32497397 0.84373593 9.3813359e-39
0.45447695 -0.32518673 0.844136 9.3813359e-39
0.46361849 -0.32589969 0.84225649 9.3813359e-39
0.4173913 -0.31250378 0.8404693 9.3813359e-39
0.42536694 -0.31505266 0.84195083 9.3813359e-39
0.43504006 -0.31499586 0.84307909 9.3813359e-39
0.44477576 -0.31481996 0.84344018 9.3813359e-39
0.45421222 -0.31565201 0.84255201 9.3813359e-39
0.4603278 -0.31826472 0.84003061 9.3813359e-39
0.40750533 -0.30423227 0.84028691 9.3813359e-39
0.41511452 -0.30491683 0.84086239 9.3813359e-39
0.42457697 -0.30475861 0.84217155 9.3813359e-39
0.43516317 -0.30538318 0.84230411 9.3813359e-39
0.44512227 -0.30498391 0.8420099 9.3813359e-39
0.45227307 -0.30558494 0.84167188 9.3813359e-39
0.41900182 -0.29587877 0.84029084 9.3813359e-39
0.4253363 -0.29501864 0.84182006 9.3813359e-39
0.43486744 -0.29486385 0.8431133 9.3813359e-39
0.44475049 -0.29514089 0.84185988 9.3813359e-39
0.45092991 -0.2979027 0.84104824 9.3813359e-39
0.41992494 -0.28925705 0.84004927 9.3813359e-39
0.42540395 -0.28528032 0.84109515 9.3813359e-39
0.43443993 -0.28485382 0.84235507 9.3813359e-39
0.44255456 -0.28680465 0.84101313 9.3813359e-39
0.426824 -0.27980801 0.84017807 9.3813359e-39
0.43446645 -0.27944505 0.8402372 9.3813359e-39
0.45017576 -0.39958951 0.85164344 9.3813359e-39
0.45850253 -0.35588354 0.85052556 9.3813359e-39
0.62714672 -0.29550716 0.62272608 2.1569031e-38
0.61632901 -0.28390202 0.62693536 2.1569031e-38
0.62093538 -0.28998542 0.62904096 2.1569031e-38
0.60750198 -0.27294165 0.62706697 2.1569031e-38
0.61276531 -0.27900538 0.62551111 2.1569031e-38
0.59899497 -0.26189962 0.6254375 2.1569031e-38
0.6030969 -0.26705182 0.62678307 2.1569031e-38
0.5937621 -0.25484869 0.62632096 2.1569031e-38
0.58598322 -0.24477853 0.62649506 2.1569031e-38
0.57670182 -0.23384449 0.62619925 2.1569031e-38
0.58105069 -0.23850322 0.62519079 2.1569031e-38
0.5675835 -0.22231226 0.62856215 2.1569031e-38
0.57206011 -0.2270966 0.62548399 2.1569031e-38
0.55924875 -0.21156003 0.62705594 2.1569031e-38
0.56245732 -0.21561581 0.62734944 2.1569031e-38
0.55406231 -0.20482288 0.6253714 2.1569031e-38
0.54680681 -0.19444892 0.6249907 2.1569031e-38
0.55010998 -0.19938073 0.62729561 2.1569031e-38
0.53943723 -0.18130827 0.6236344 2.1569031e-38
0.54204428 -0.18629861 0.6253289 2.1569031e-38
0.53627914 -0.17471056 0.62542665 2.1569031e-38
0.54914612 -0.17736793 0.62957609 2.1569031e-38
0.5373264 -0.16850924 0.62377983 2.1569031e-38
0.54496294 -0.16418508 0.62473691 2.1569031e-38
0.55184293 -0.1612089 0.62695116 2.1569031e-38
0.55588406 -0.15718113 0.62377578 2.1569031e-38
0.56379384 -0.15433109 0.62547177 2.1569031e-38
0.57007176 -0.15090445 0.62887156 2.1569031e-38
0.62883443 -0.30110991 0.63638723 2.1569031e-38
0.63192534 -0.30377188 0.6368534 2.1569031e-38
0.62469846 -0.29513958 0.63515753 2.1569031e-38
0.61747003 -0.28377751 0.63460231 2.1569031e-38
0.62097096 -0.28891894 0.63580894 2.1569031e-38
0.60823327 -0.2719717 0.63357508 2.1569031e-38
0.61231077 -0.27660602 0.63534862 2.1569031e-38
0.59912735 -0.26140159 0.63050061 2.1569031e-38
0.60365564 -0.26557952 0.63535321 2.1569031e-38
0.59551954 -0.2554031 0.63515168 2.1569031e-38
0.5867213 -0.24453504 0.63505858 2.1569031e-38
0.59086263 -0.24921641 0.63567013 2.1569031e-38
0.57736707 -0.23326804 0.63484293 2.1569031e-38
0.58145195 -0.23788407 0.63492978 2.1569031e-38
0.55662519 -0.22126332 0.63416231 2.1569031e-38
0.56690949 -0.22189417 0.63539338 2.1569031e-38
0.5720644 -0.2271159 0.63444084 2.1569031e-38
0.55896378 -0.21091925 0.63435078 2.1569031e-38
0.56309569 -0.21615328 0.63489008 2.1569031e-38
0.55444098 -0.20480752 0.63532513 2.1569031e-38
0.54762059 -0.19439729 0.6349377 2.1569031e-38
0.55073571 -0.19881034 0.63792187 2.1569031e-38
0.53933668 -0.18049374 0.63145185 2.1569031e-38
0.54218686 -0.18527618 0.63513917 2.1569031e-38
0.53724253 -0.17457265 0.6352666 2.1569031e-38
0.54010838 -0.17930184 0.63999909 2.1569031e-38
0.53823191 -0.16884248 0.63578564 2.1569031e-38
0.54487908 -0.1653318 0.6353457 2.1569031e-38
0.55295902 -0.16137438 0.63438064 2.1569031e-38
0.55754137 -0.15875003 0.63425767 2.1569031e-38
0.56529784 -0.15458022 0.63496161 2.1569031e-38
0.57170755 -0.15093794 0.63683134 2.1569031e-38
0.62936664 -0.30091411 0.64717555 2.1569031e-38
0.63187051 -0.30444714 0.64952558 2.1569031e-38
0.62548786 -0.2944884 0.64514053 2.1569031e-38
0.61826789 -0.28247395 0.64451277 2.1569031e-38
0.62141496 -0.28729436 0.6455071 2.1569031e-38
0.60916489 -0.2705768 0.64228237 2.1569031e-38
0.61379331 -0.27586511 0.64489388 2.1569031e-38
0.60498357 -0.26520082 0.64513195 2.1569031e-38
0.59616172 -0.25421298 0.644503 2.1569031e-38
0.60024333 -0.25915805 0.64669502 2.1569031e-38
0.58758241 -0.24321918 0.64469719 2.1569031e-38
0.59163326 -0.24826293 0.64550513 2.1569031e-38
0.57817912 -0.23211943 0.6453684 2.1569031e-38
0.5825237 -0.23700421 0.64537638 2.1569031e-38
0.56889749 -0.22221875 0.64410454 2.1569031e-38
0.57325357 -0.22679886 0.64498687 2.1569031e-38
0.55932277 -0.21038918 0.64476216 2.1569031e-38
0.56352383 -0.21559314 0.64512199 2.1569031e-38
0.55545402 -0.20479566 0.64460289 2.1569031e-38
0.54775208 -0.19326849 0.64522022 2.1569031e-38
0.55116719 -0.19837135 0.64422619 2.1569031e-38
0.54312623 -0.1849556 0.64498073 2.1569031e-38
0.53809321 -0.17417899 0.64463753 2.1569031e-38
0.54051441 -0.17900792 0.64650375 2.1569031e-38
0.53801209 -0.16898617 0.64465171 2.1569031e-38
0.54462415 -0.16569316 0.64416045 2.1569031e-38
0.55324829 -0.1613691 0.64355206 2.1569031e-38
0.55865562 -0.15869641 0.64269161 2.1569031e-38
0.56465429 -0.15574384 0.64301479 2.1569031e-38
0.57278812 -0.15155506 0.64219773 2.1569031e-38
0.63516748 -0.30348599 0.65305114 2.1569031e-38
0.64070034 -0.30592752 0.65637863 2.1569031e-38
0.62771744 -0.29432732 0.65157825 2.1569031e-38
0.63218623 -0.29796654 0.6534242 2.1569031e-38
0.6193648 -0.28146568 0.65449011 2.1569031e-38
0.62256438 -0.2865423 0.65324312 2.1569031e-38
0.61435276 -0.27481723 0.65521926 2.1569031e-38
0.60553038 -0.26410741 0.65493959 2.1569031e-38
0.61030054 -0.2694231 0.6568681 2.1569031e-38
0.59705013 -0.2536912 0.65478081 2.1569031e-38
0.60093021 -0.25813043 0.65647548 2.1569031e-38
0.5882324 -0.24251413 0.65458661 2.1569031e-38
0.59193492 -0.24707809 0.65518272 2.1569031e-38
0.57876742 -0.2310192 0.65396798 2.1569031e-38
0.58336532 -0.23643608 0.6552422 2.1569031e-38
0.56848097 -0.22022507 0.65003866 2.1569031e-38
0.57388484 -0.22515708 0.65489972 2.1569031e-38
0.5597381 -0.21019596 0.6509409 2.1569031e-38
0.56517076 -0.21527573 0.65573436 2.1569031e-38
0.55636072 -0.20516869 0.65503931 2.1569031e-38
0.54811925 -0.19313505 0.65572309 2.1569031e-38
0.55118608 -0.19805019 0.65575397 2.1569031e-38
0.54399633 -0.18536712 0.65465778 2.1569031e-38
0.53829634 -0.1736837 0.65514868 2.1569031e-38
0.54076606 -0.17885327 0.65396231 2.1569031e-38
0.53814888 -0.16740185 0.65646785 2.1569031e-38
0.54717183 -0.15756783 0.65853596 2.1569031e-38
0.55721235 -0.15303095 0.65831316 2.1569031e-38
0.56530219 -0.15146072 0.65334082 2.1569031e-38
0.56737113 -0.14881139 0.65815139 2.1569031e-38
0.57238752 -0.14847456 0.65576345 2.1569031e-38
0.63561547 -0.3026275 0.66642112 2.1569031e-38
0.62641823 -0.29288056 0.66662514 2.1569031e-38
0.63153845 -0.2982842 0.66697353 2.1569031e-38
0.61923635 -0.28126574 0.6644814 2.1569031e-38
0.62205178 -0.28622535 0.66561794 2.1569031e-38
0.61590421 -0.27535573 0.66529989 2.1569031e-38
0.60716158 -0.26404235 0.66479963 2.1569031e-38
0.61120874 -0.26891345 0.66493356 2.1569031e-38
0.59726423 -0.25227234 0.66464961 2.1569031e-38
0.60191011 -0.25756419 0.66517752 2.1569031e-38
0.58856732 -0.24111569 0.66394126 2.1569031e-38
0.59271091 -0.24611354 0.66513652 2.1569031e-38
0.57911223 -0.23032735 0.66014242 2.1569031e-38
0.58395219 -0.23509103 0.66532767 2.1569031e-38
0.57558978 -0.22497539 0.66499394 2.1569031e-38
0.56656778 -0.21441697 0.66515577 2.1569031e-38
0.57132179 -0.21921669 0.66747946 2.1569031e-38
0.5490272 -0.20255363 0.66686493 2.1569031e-38
0.55694318 -0.2038822 0.66494262 2.1569031e-38
0.56147188 -0.20869567 0.66585797 2.1569031e-38
0.54864305 -0.19211756 0.66447115 2.1569031e-38
0.55198938 -0.19732939 0.6648168 2.1569031e-38
0.54418898 -0.18477647 0.6648953 2.1569031e-38
0.53859127 -0.17324772 0.66447777 2.1569031e-38
0.54102272 -0.17725356 0.66708416 2.1569031e-38
0.53846157 -0.16546826 0.66485232 2.1569031e-38
0.54135245 -0.160946 0.66510272 2.1569031e-38
0.54605085 -0.15779077 0.66567439 2.1569031e-38
0.55422938 -0.15332404 0.66601139 2.1569031e-38
0.56512076 -0.15020795 0.66677231 2.1569031e-38
0.56519347 -0.14945236 0.6652016 2.1569031e-38
0.57461876 -0.14849299 0.66522431 2.1569031e-38
0.58079147 -0.14893308 0.66847813 2.1569031e-38
0.63673109 -0.30284452 0.67519373 2.1569031e-38
0.62711132 -0.29312366 0.67551184 2.1569031e-38
0.6316908 -0.29803118 0.67452604 2.1569031e-38
0.61935556 -0.28028667 0.67467225 2.1569031e-38
0.62220788 -0.28525189 0.6748625 2.1569031e-38
0.6162734 -0.27476227 0.6752916 2.1569031e-38
0.60747373 -0.26347178 0.67502582 2.1569031e-38
0.61207622 -0.26834169 0.67552954 2.1569031e-38
0.59887564 -0.25226521 0.67460686 2.1569031e-38
0.60273963 -0.25694251 0.67535168 2.1569031e-38
0.58892924 -0.24006815 0.67129767 2.1569031e-38
0.59339195 -0.2452516 0.67484176 2.1569031e-38
0.5852536 -0.23465066 0.6749357 2.1569031e-38
0.57710594 -0.22426462 0.67468673 2.1569031e-38
0.58135891 -0.22924013 0.67680633 2.1569031e-38
0.56625211 -0.21270384 0.674977 2.1569031e-38
0.57186872 -0.21761598 0.6759643 2.1569031e-38
0.55785078 -0.20242427 0.67565 2.1569031e-38
0.5624063 -0.20758885 0.67460704 2.1569031e-38
0.54893345 -0.1920533 0.67523861 2.1569031e-38
0.55276501 -0.19685556 0.67534804 2.1569031e-38
0.5458371 -0.18520695 0.67500746 2.1569031e-38
0.53984934 -0.17051573 0.67626619 2.1569031e-38
0.54197854 -0.17570414 0.67505723 2.1569031e-38
0.53846753 -0.16553286 0.67501098 2.1569031e-38
0.54123294 -0.1609755 0.6741482 2.1569031e-38
0.5373866 -0.15673025 0.67249864 2.1569031e-38
0.54633343 -0.15764637 0.67554319 2.1569031e-38
0.55489296 -0.15320107 0.67501485 2.1569031e-38
0.56131065 -0.15052134 0.67645192 2.1569031e-38
0.5653646 -0.14880127 0.67768377 2.1569031e-38
0.57724512 -0.14982578 0.67035007 2.1569031e-38
0.63667655 -0.30067179 0.68162817 2.1569031e-38
0.64089328 -0.30335724 0.68197948 2.1569031e-38
0.62672216 -0.2924664 0.68527931 2.1569031e-38
0.6321516 -0.29723576 0.6841839 2.1569031e-38
0.61984092 -0.28075695 0.68430436 2.1569031e-38
0.62275708 -0.28584632 0.68544787 2.1569031e-38
0.61691332 -0.27506152 0.68548101 2.1569031e-38
0.60806686 -0.26215607 0.68623191 2.1569031e-38
0.61194748 -0.26718548 0.68458974 2.1569031e-38
0.59920973 -0.25114062 0.68441033 2.1569031e-38
0.60315573 -0.25605246 0.68479043 2.1569031e-38
0.59444606 -0.24505797 0.68504274 2.1569031e-38
0.58645666 -0.23479345 0.68503428 2.1569031e-38
0.57774991 -0.22314154 0.68470722 2.1569031e-38
0.58179343 -0.22834611 0.68555152 2.1569031e-38
0.56815547 -0.21166305 0.68400139 2.1569031e-38
0.57270634 -0.21657856 0.68530881 2.1569031e-38
0.5588786 -0.20148115 0.68523276 2.1569031e-38
0.56337762 -0.20636018 0.68497652 2.1569031e-38
0.54966331 -0.19113107 0.68256778 2.1569031e-38
0.55332208 -0.195365 0.68532896 2.1569031e-38
0.56174469 -0.19883609 0.68257475 2.1569031e-38
0.54618216 -0.18506379 0.68617445 2.1569031e-38
0.53901404 -0.17288679 0.68667722 2.1569031e-38
0.54134852 -0.17677473 0.68799984 2.1569031e-38
0.53807968 -0.16526121 0.68555605 2.1569031e-38
0.54090559 -0.16055621 0.6853835 2.1569031e-38
0.54526931 -0.15755923 0.68606073 2.1569031e-38
0.55500776 -0.15250991 0.68436188 2.1569031e-38
0.55965221 -0.14969099 0.68877614 2.1569031e-38
0.56554407 -0.14864028 0.68511957 2.1569031e-38
0.57391393 -0.14614746 0.68529344 2.1569031e-38
0.62766796 -0.29213059 0.69479209 2.1569031e-38
0.63262546 -0.29732013 0.69618243 2.1569031e-38
0.62358361 -0.28504398 0.69509089 2.1569031e-38
0.61750031 -0.27480304 0.69443458 2.1569031e-38
0.62054402 -0.27965963 0.69727665 2.1569031e-38
0.60888118 -0.26180986 0.6953091 2.1569031e-38
0.61253005 -0.26680556 0.69520307 2.1569031e-38
0.60361731 -0.25506622 0.6950081 2.1569031e-38
0.59573764 -0.24487981 0.69530648 2.1569031e-38
0.58715272 -0.23395106 0.6947248 2.1569031e-38
0.59117311 -0.23904414 0.6952244 2.1569031e-38
0.57825166 -0.22260192 0.69454736 2.1569031e-38
0.58199561 -0.22728164 0.69525158 2.1569031e-38
0.5690878 -0.21089736 0.69516587 2.1569031e-38
0.57324493 -0.21617398 0.69523162 2.1569031e-38
0.55290043 -0.20138225 0.69482559 2.1569031e-38
0.56413037 -0.20505942 0.69491011 2.1569031e-38
0.55495954 -0.19486934 0.69483608 2.1569031e-38
0.5473851 -0.18456274 0.69495195 2.1569031e-38
0.55068105 -0.18951286 0.69642085 2.1569031e-38
0.53984058 -0.17090118 0.69411588 2.1569031e-38
0.54284585 -0.17590062 0.6932593 2.1569031e-38
0.53906423 -0.16550031 0.6943568 2.1569031e-38
0.54109925 -0.16302437 0.69401574 2.1569031e-38
0.54612362 -0.1568799 0.69449216 2.1569031e-38
0.55347008 -0.15171333 0.69474453 2.1569031e-38
0.55906171 -0.1498941 0.69829828 2.1569031e-38
0.56510365 -0.14823294 0.69524741 2.1569031e-38
0.57391942 -0.14615104 0.6948427 2.1569031e-38
0.63706005 -0.30085883 0.70243406 2.1569031e-38
0.62846941 -0.29138049 0.70373535 2.1569031e-38
0.63341272 -0.29645684 0.70500678 2.1569031e-38
0.62440664 -0.28510606 0.7052815 2.1569031e-38
0.61760408 -0.27394345 0.70489091 2.1569031e-38
0.62063277 -0.27901587 0.70456827 2.1569031e-38
0.60948396 -0.26086131 0.70363045 2.1569031e-38
0.61274803 -0.26577494 0.70538193 2.1569031e-38
0.60523039 -0.25491202 0.70513386 2.1569031e-38
0.5966568 -0.24376437 0.70500571 2.1569031e-38
0.60052919 -0.24899311 0.70406061 2.1569031e-38
0.58802664 -0.23306061 0.70460492 2.1569031e-38
0.59221381 -0.23808749 0.705127 2.1569031e-38
0.57830167 -0.22128385 0.70399171 2.1569031e-38
0.58254212 -0.2262391 0.70517725 2.1569031e-38
0.56973302 -0.21065672 0.70368648 2.1569031e-38
0.57389766 -0.21554118 0.70546955 2.1569031e-38
0.56551558 -0.20504098 0.70525533 2.1569031e-38
0.55650252 -0.19410253 0.70459378 2.1569031e-38
0.56089884 -0.19913884 0.70590681 2.1569031e-38
0.548154 -0.1826859 0.70407164 2.1569031e-38
0.55190378 -0.1869317 0.70618773 2.1569031e-38
0.53938359 -0.17111373 0.70221412 2.1569031e-38
0.54389673 -0.17530093 0.70567697 2.1569031e-38
0.53951192 -0.16738948 0.7025423 2.1569031e-38
0.54081261 -0.16388834 0.70572978 2.1569031e-38
0.53781062 -0.15764582 0.70667922 2.1569031e-38
0.54459482 -0.1561275 0.70537674 2.1569031e-38
0.55518544 -0.15142886 0.70496845 2.1569031e-38
0.56532323 -0.14854917 0.70415652 2.1569031e-38
0.57479835 -0.14599127 0.7044583 2.1569031e-38
0.58053529 -0.14521825 0.70909482 2.1569031e-38
0.63803113 -0.30038136 0.71237266 2.1569031e-38
0.62882203 -0.29028267 0.71019363 2.1569031e-38
0.63383114 -0.29496759 0.71513152 2.1569031e-38
0.62583351 -0.2848562 0.714881 2.1569031e-38
0.61842644 -0.27340829 0.71432215 2.1569031e-38
0.6215328 -0.27816889 0.71573532 2.1569031e-38
0.61345792 -0.26518014 0.71510857 2.1569031e-38
0.60653317 -0.25502485 0.71498048 2.1569031e-38
0.61003363 -0.25985652 0.71639615 2.1569031e-38
0.59736711 -0.24281584 0.71500069 2.1569031e-38
0.60151809 -0.24807268 0.71470523 2.1569031e-38
0.58862334 -0.2319435 0.71472096 2.1569031e-38
0.59256929 -0.23680902 0.71512067 2.1569031e-38
0.57890332 -0.22036523 0.71224582 2.1569031e-38
0.5832864 -0.22525704 0.71531355 2.1569031e-38
0.57484519 -0.21491723 0.71492314 2.1569031e-38
0.56659001 -0.20466903 0.71507263 2.1569031e-38
0.57132733 -0.20976281 0.71881551 2.1569031e-38
0.55716479 -0.19333002 0.71486253 2.1569031e-38
0.56140316 -0.19840562 0.71505016 2.1569031e-38
0.54926407 -0.18164106 0.71583992 2.1569031e-38
0.55233353 -0.18665832 0.715177 2.1569031e-38
0.54625857 -0.17464292 0.71281987 2.1569031e-38
0.54250586 -0.16429737 0.71461028 2.1569031e-38
0.54638553 -0.1562091 0.71402979 2.1569031e-38
0.55181885 -0.15191385 0.71639538 2.1569031e-38
0.55632293 -0.14925984 0.71593225 2.1569031e-38
0.56523544 -0.14721289 0.71525866 2.1569031e-38
0.57517779 -0.14614548 0.71479225 2.1569031e-38
0.58163184 -0.14553395 0.71508044 2.1569031e-38
0.63535392 -0.29483345 0.72512573 2.1569031e-38
0.64124703 -0.29876715 0.72931778 2.1569031e-38
0.62665164 -0.28367588 0.72540116 2.1569031e-38
0.63072282 -0.28904736 0.72616076 2.1569031e-38
0.61910385 -0.27220654 0.72437066 2.1569031e-38
0.62224144 -0.27705267 0.72494322 2.1569031e-38
0.61483306 -0.26513511 0.72496724 2.1569031e-38
0.60720211 -0.25439587 0.72457999 2.1569031e-38
0.61097592 -0.25931874 0.72729903 2.1569031e-38
0.59833813 -0.24253123 0.72516936 2.1569031e-38
0.60218328 -0.24742226 0.72490698 2.1569031e-38
0.58925128 -0.23123571 0.72426766 2.1569031e-38
0.59327626 -0.23612192 0.72524697 2.1569031e-38
0.58432603 -0.22483253 0.7251026 2.1569031e-38
0.57599205 -0.21436469 0.72466403 2.1569031e-38
0.58039069 -0.21936293 0.72731292 2.1569031e-38
0.5669961 -0.20316504 0.72425783 2.1569031e-38
0.57123655 -0.2079615 0.72639406 2.1569031e-38
0.5581044 -0.19250651 0.72466058 2.1569031e-38
0.562298 -0.19730367 0.72518802 2.1569031e-38
0.54887265 -0.18174791 0.72384059 2.1569031e-38
0.55296612 -0.18635833 0.72561818 2.1569031e-38
0.54505259 -0.17458835 0.72531384 2.1569031e-38
0.54366845 -0.16569899 0.72447485 2.1569031e-38
0.54596543 -0.15529872 0.72609395 2.1569031e-38
0.55337936 -0.15072072 0.72002673 2.1569031e-38
0.54673988 -0.14236499 0.72240508 2.1569031e-38
0.55437917 -0.14845774 0.7253387 2.1569031e-38
0.56634659 -0.14652209 0.72460538 2.1569031e-38
0.57732671 -0.14566053 0.72610945 2.1569031e-38
0.6363228 -0.29267055 0.7345342 2.1569031e-38
0.64211434 -0.29760635 0.7339108 2.1569031e-38
0.62792516 -0.28344026 0.73465061 2.1569031e-38
0.63239086 -0.28724432 0.7363497 2.1569031e-38
0.61939365 -0.27091235 0.73468733 2.1569031e-38
0.62287545 -0.27609646 0.7352736 2.1569031e-38
0.61531866 -0.26477385 0.7348367 2.1569031e-38
0.60727191 -0.25349519 0.73487544 2.1569031e-38
0.61092883 -0.25829947 0.73559016 2.1569031e-38
0.59847707 -0.24207506 0.7351594 2.1569031e-38
0.60230768 -0.24720132 0.73515368 2.1569031e-38
0.58963978 -0.23030509 0.73328745 2.1569031e-38
0.59351194 -0.23534769 0.7348184 2.1569031e-38
0.58586645 -0.22506019 0.73525721 2.1569031e-38
0.5768013 -0.21370219 0.73483276 2.1569031e-38
0.58090603 -0.21877776 0.73497009 2.1569031e-38
0.56788051 -0.20261957 0.73514247 2.1569031e-38
0.57195097 -0.2075561 0.73564678 2.1569031e-38
0.55870086 -0.19150165 0.73465681 2.1569031e-38
0.56288522 -0.19648528 0.73536742 2.1569031e-38
0.54860204 -0.1803565 0.73063433 2.1569031e-38
0.55342573 -0.18513344 0.73526174 2.1569031e-38
0.54767072 -0.17506087 0.7354036 2.1569031e-38
0.55066031 -0.17881554 0.73911589 2.1569031e-38
0.54495484 -0.16519752 0.73655456 2.1569031e-38
0.54657656 -0.15597072 0.73400795 2.1569031e-38
0.55090892 -0.15100989 0.73390609 2.1569031e-38
0.55468965 -0.14749545 0.73546696 2.1569031e-38
0.56309199 -0.1454064 0.73566908 2.1569031e-38
0.57414895 -0.14505801 0.73491967 2.1569031e-38
0.58092821 -0.14452991 0.73845553 2.1569031e-38
0.63789034 -0.2919324 0.74473357 2.1569031e-38
0.64125431 -0.29590261 0.74448591 2.1569031e-38
0.62907916 -0.28184181 0.74443215 2.1569031e-38
0.63330549 -0.28648844 0.74534929 2.1569031e-38
0.62373072 -0.27488947 0.74502367 2.1569031e-38
0.67344832 -0.27476242 0.74882728 2.1569031e-38
0.61648458 -0.26492259 0.74464452 2.1569031e-38
0.62053859 -0.26938236 0.74969113 2.1569031e-38
0.64416021 -0.26914147 0.74925834 2.1569031e-38
0.66876954 -0.26468563 0.74949682 2.1569031e-38
0.67042297 -0.26375413 0.74790221 2.1569031e-38
0.60742819 -0.25316527 0.74573785 2.1569031e-38
0.61127287 -0.25801456 0.7445128 2.1569031e-38
0.66717356 -0.25583437 0.74797744 2.1569031e-38
0.59877586 -0.24223158 0.74477124 2.1569031e-38
0.6025722 -0.24714114 0.74539357 2.1569031e-38
0.63273972 -0.24008442 0.74758071 2.1569031e-38
0.6581924 -0.24252529 0.7477349 2.1569031e-38
0.66288263 -0.24836989 0.74754667 2.1569031e-38
0.59359819 -0.23501387 0.74518067 2.1569031e-38
0.64819795 -0.232403 0.7490139 2.1569031e-38
0.65307409 -0.23473173 0.74646306 2.1569031e-38
0.58628231 -0.22484592 0.74542129 2.1569031e-38
0.59020346 -0.2296316 0.74890637 2.1569031e-38
0.62908286 -0.22792852 0.74543667 2.1569031e-38
0.64578378 -0.22541709 0.74683547 2.1569031e-38
0.6500476 -0.22869386 0.74486637 2.1569031e-38
0.57769406 -0.21324375 0.74504155 2.1569031e-38
0.58156484 -0.21805997 0.74609739 2.1569031e-38
0.63576251 -0.21527906 0.74930239 2.1569031e-38
0.64107996 -0.21836723 0.74697185 2.1569031e-38
0.56879628 -0.20199938 0.74416852 2.1569031e-38
0.57295531 -0.2067765 0.74606907 2.1569031e-38
0.60680979 -0.20633256 0.74969149 2.1569031e-38
0.61169875 -0.20335282 0.74559617 2.1569031e-38
0.6273151 -0.20119512 0.74724919 2.1569031e-38
0.63134253 -0.20667756 0.74769449 2.1569031e-38
0.55944848 -0.19076456 0.74343854 2.1569031e-38
0.56378305 -0.19527322 0.74568653 2.1569031e-38
0.57202899 -0.19423774 0.74964106 2.1569031e-38
0.61811775 -0.19110161 0.74992752 2.1569031e-38
0.62425309 -0.19588631 0.74697578 2.1569031e-38
0.55553156 -0.18472466 0.74499428 2.1569031e-38
0.56004119 -0.18828379 0.74966079 2.1569031e-38
0.61403906 -0.18417922 0.74917197 2.1569031e-38
0.54889309 -0.1732243 0.74691588 2.1569031e-38
0.55141699 -0.17653961 0.74490112 2.1569031e-38
0.6067273 -0.17356415 0.74867481 2.1569031e-38
0.61028868 -0.17882697 0.74900997 2.1569031e-38
0.54802048 -0.16449016 0.7431435 2.1569031e-38
0.55008835 -0.16957447 0.74290025 2.1569031e-38
0.5994069 -0.16307423 0.74805212 2.1569031e-38
0.60186332 -0.16606613 0.74807817 2.1569031e-38
0.54715139 -0.15490678 0.7453084 2.1569031e-38
0.5505259 -0.15051226 0.74005407 2.1569031e-38
0.59743065 -0.15983284 0.74675107 2.1569031e-38
0.54991311 -0.14998505 0.74310893 2.1569031e-38
0.55509073 -0.14828904 0.74380922 2.1569031e-38
0.56471503 -0.14626533 0.74358058 2.1569031e-38
0.57521081 -0.14503393 0.74525225 2.1569031e-38
0.58123207 -0.14845414 0.74966264 2.1569031e-38
0.63927925 -0.29109141 0.75222301 2.1569031e-38
0.64513391 -0.29341716 0.75389415 2.1569031e-38
0.65510637 -0.29418662 0.75694203 2.1569031e-38
0.66149229 -0.29326764 0.75915819 2.1569031e-38
0.63520581 -0.28395605 0.75488263 2.1569031e-38
0.64446741 -0.28511131 0.75786859 2.1569031e-38
0.65488118 -0.28506187 0.7584663 2.1569031e-38
0.66382504 -0.28330338 0.75706589 2.1569031e-38
0.62660915 -0.27385202 0.75497633 2.1569031e-38
0.63443583 -0.2765401 0.75923592 2.1569031e-38
0.64605057 -0.27573013 0.75927407 2.1569031e-38
0.65569526 -0.27481642 0.75759596 2.1569031e-38
0.66383052 -0.27501923 0.75531304 2.1569031e-38
0.67081326 -0.27632657 0.75135207 2.1569031e-38
0.61777145 -0.26345679 0.75333059 2.1569031e-38
0.62282175 -0.26575264 0.75709796 2.1569031e-38
0.64775342 -0.2645373 0.75920951 2.1569031e-38
0.65519851 -0.26510298 0.75741321 2.1569031e-38
0.66307545 -0.26489249 0.75385207 2.1569031e-38
0.60851425 -0.25265345 0.75219399 2.1569031e-38
0.61470604 -0.25579533 0.75576442 2.1569031e-38
0.6239602 -0.2556788 0.75935215 2.1569031e-38
0.63547605 -0.25259402 0.7594471 2.1569031e-38
0.64480835 -0.25469661 0.75821197 2.1569031e-38
0.65486211 -0.25495636 0.75557196 2.1569031e-38
0.66348404 -0.25653327 0.75117171 2.1569031e-38
0.59882677 -0.24086623 0.75134784 2.1569031e-38
0.6056338 -0.24495704 0.75567609 2.1569031e-38
0.61433589 -0.24589726 0.75928748 2.1569031e-38
0.62557471 -0.24456984 0.75923747 2.1569031e-38
0.63524169 -0.24531235 0.75768411 2.1569031e-38
0.64488745 -0.24475117 0.75588 2.1569031e-38
0.65348572 -0.24586803 0.75314039 2.1569031e-38
0.5960831 -0.2340042 0.75519532 2.1569031e-38
0.60268623 -0.23640569 0.75879097 2.1569031e-38
0.61553335 -0.23425081 0.75910777 2.1569031e-38
0.62484223 -0.23507363 0.75789678 2.1569031e-38
0.6348595 -0.23536845 0.7559346 2.1569031e-38
0.64382052 -0.2356912 0.7537834 2.1569031e-38
0.65146786 -0.23770972 0.7503503 2.1569031e-38
0.58759719 -0.22344398 0.75391495 2.1569031e-38
0.59340173 -0.22561173 0.75823641 2.1569031e-38
0.6063686 -0.22536384 0.75940043 2.1569031e-38
0.61530149 -0.22504002 0.75777495 2.1569031e-38
0.62477702 -0.22489846 0.75598127 2.1569031e-38
0.63469619 -0.2254108 0.75363863 2.1569031e-38
0.64159536 -0.22619623 0.75103974 2.1569031e-38
0.57939565 -0.2116985 0.75227439 2.1569031e-38
0.58489853 -0.21533431 0.75652313 2.1569031e-38
0.59172952 -0.21794038 0.75974238 2.1569031e-38
0.60496491 -0.21459489 0.75879073 2.1569031e-38
0.61503196 -0.21526226 0.75633693 2.1569031e-38
0.62467116 -0.2152386 0.7540912 2.1569031e-38
0.63205683 -0.21653983 0.75154698 2.1569031e-38
0.56954074 -0.20058651 0.75022179 2.1569031e-38
0.57565928 -0.20425007 0.75515389 2.1569031e-38
0.5840587 -0.20652507 0.75943649 2.1569031e-38
0.59776235 -0.20324908 0.75947934 2.1569031e-38
0.60491043 -0.20533736 0.75773793 2.1569031e-38
0.61522156 -0.20482074 0.75483721 2.1569031e-38
0.62389922 -0.20633106 0.75245726 2.1569031e-38
0.56692541 -0.1940933 0.75463039 2.1569031e-38
0.57244462 -0.19715104 0.75809228 2.1569031e-38
0.59619009 -0.19447836 0.75890756 2.1569031e-38
0.60519731 -0.19485043 0.75647348 2.1569031e-38
0.61429989 -0.19575591 0.7536819 2.1569031e-38
0.62114429 -0.19636258 0.75020587 2.1569031e-38
0.55826974 -0.18289946 0.75341719 2.1569031e-38
0.56252289 -0.18653353 0.75657374 2.1569031e-38
0.58747482 -0.1838492 0.75960934 2.1569031e-38
0.59476751 -0.18454404 0.75798804 2.1569031e-38
0.60412765 -0.18583429 0.75510836 2.1569031e-38
0.6121484 -0.18723102 0.75161946 2.1569031e-38
0.54947662 -0.171994 0.75053751 2.1569031e-38
0.55474561 -0.17514221 0.75542301 2.1569031e-38
0.57782191 -0.17241766 0.75949764 2.1569031e-38
0.58517718 -0.17488982 0.75841206 2.1569031e-38
0.59475815 -0.17518744 0.75619471 2.1569031e-38
0.60351443 -0.1763698 0.75233191 2.1569031e-38
0.54762936 -0.1643451 0.75340289 2.1569031e-38
0.55312407 -0.16409163 0.75812978 2.1569031e-38
0.56571424 -0.16276844 0.7592631 2.1569031e-38
0.57486451 -0.16455545 0.75825202 2.1569031e-38
0.58467156 -0.16507223 0.75645268 2.1569031e-38
0.59395409 -0.16595493 0.75352854 2.1569031e-38
0.54852521 -0.15586869 0.75194335 2.1569031e-38
0.5544433 -0.15468381 0.75609559 2.1569031e-38
0.56494719 -0.15522985 0.75749177 2.1569031e-38
0.57517099 -0.15478811 0.75520539 2.1569031e-38
0.584387 -0.15610099 0.7535097 2.1569031e-38
0.59278166 -0.15992978 0.75180566 2.1569031e-38
0.55625838 -0.14808065 0.7545439 2.1569031e-38
0.56493634 -0.14716992 0.75532568 2.1569031e-38
0.5739243 -0.14723559 0.75250703 2.1569031e-38
0.59174818 -0.14958552 0.75650507 2.1569031e-38
0.63799435 -0.28442785 0.76760095 2.1569031e-38
0.65824068 -0.28486824 0.76418275 2.1569031e-38
0.66208822 -0.28653288 0.76046956 2.1569031e-38
0.63505423 -0.27194354 0.76031888 2.1569031e-38
0.6426096 -0.2715708 0.76024276 2.1569031e-38
0.62741971 -0.2638213 0.7606461 2.1569031e-38
0.63491434 -0.26510033 0.76104677 2.1569031e-38
0.64238304 -0.26543757 0.76036429 2.1569031e-38
0.61792976 -0.25181955 0.76055819 2.1569031e-38
0.62498057 -0.25526613 0.76067889 2.1569031e-38
0.63408369 -0.25703233 0.76051605 2.1569031e-38
0.61481667 -0.24517941 0.76039535 2.1569031e-38
0.6213361 -0.24905835 0.76021719 2.1569031e-38
0.60697258 -0.23406601 0.76036322 2.1569031e-38
0.61132401 -0.23761125 0.76040953 2.1569031e-38
0.62568915 -0.23744777 0.76472312 2.1569031e-38
0.5983783 -0.22313055 0.76023179 2.1569031e-38
0.60313374 -0.22572671 0.76035661 2.1569031e-38
0.6237787 -0.22553951 0.76176804 2.1569031e-38
0.58939213 -0.21034834 0.76000845 2.1569031e-38
0.59586674 -0.21497439 0.76033598 2.1569031e-38
0.57888722 -0.2005966 0.76019895 2.1569031e-38
0.58700246 -0.20308149 0.76016217 2.1569031e-38
0.59339339 -0.20575184 0.76032716 2.1569031e-38
0.5755595 -0.1938379 0.76117396 2.1569031e-38
0.58504492 -0.19521509 0.76076818 2.1569031e-38
0.59152502 -0.19714804 0.76033682 2.1569031e-38
0.56645948 -0.18427862 0.7616365 2.1569031e-38
0.57478803 -0.18512197 0.76159239 2.1569031e-38
0.58320481 -0.18590155 0.76053929 2.1569031e-38
0.55833447 -0.17300877 0.76115358 2.1569031e-38
0.56489319 -0.17517938 0.76177746 2.1569031e-38
0.57423347 -0.17571655 0.76094776 2.1569031e-38
0.58078468 -0.17963168 0.76036692 2.1569031e-38
0.5568465 -0.16685753 0.76085675 2.1569031e-38
0.56416041 -0.16702878 0.76072156 2.1569031e-38
0.57064974 -0.16880195 0.76031846 2.1569031e-38
0.45455447 0.05523093 0.62723178 9.3936673e-39
0.45676431 0.065342635 0.62807512 9.3936673e-39
0.46429616 0.07203836 0.62641132 9.3936673e-39
0.47391015 0.0770441 0.62602115 9.3936673e-39
0.47985864 0.080328546 0.62487566 9.3936673e-39
0.48476896 0.083356813 0.62552112 9.3936673e-39
0.49210718 0.088135935 0.62538689 9.3936673e-39
0.49810463 0.091461778 0.62572336 9.3936673e-39
0.50424337 0.095052958 0.62469256 9.3936673e-39
0.45326811 0.049827427 0.63764924 9.3936673e-39
0.4538846 0.055591851 0.63393229 9.3936673e-39
0.4575507 0.064336374 0.6338191 9.3936673e-39
0.46142086 0.069581769 0.634812 9.3936673e-39
0.46614942 0.072831713 0.63510543 9.3936673e-39
0.47519821 0.076990418 0.63508028 9.3936673e-39
0.48003989 0.079693094 0.63873291 9.3936673e-39
0.47983092 0.08005996 0.63062078 9.3936673e-39
0.48512948 0.083184592 0.63578278 9.3936673e-39
0.49265021 0.087936819 0.63591993 9.3936673e-39
0.49748722 0.091145508 0.63372719 9.3936673e-39
0.50441313 0.095558979 0.63542688 9.3936673e-39
0.51000684 0.098825946 0.63416779 9.3936673e-39
0.515921 0.10211816 0.63539976 9.3936673e-39
0.52499712 0.10727601 0.63747191 9.3936673e-39
0.53101289 0.10988499 0.63371432 9.3936673e-39
0.53656983 0.11250789 0.63679296 9.3936673e-39
0.54270446 0.11523471 0.63908458 9.3936673e-39
0.44900721 0.054320782 0.6476649 9.3936673e-39
0.45406729 0.053433996 0.64407176 9.3936673e-39
0.46263328 0.051475655 0.64174622 9.3936673e-39
0.45575133 0.063940987 0.64555019 9.3936673e-39
0.46213323 0.068823166 0.6449638 9.3936673e-39
0.46719214 0.071789391 0.64478779 9.3936673e-39
0.47462261 0.075943239 0.64510131 9.3936673e-39
0.48034915 0.07947246 0.6438089 9.3936673e-39
0.48574701 0.083044849 0.64557183 9.3936673e-39
0.49339077 0.088064194 0.64441282 9.3936673e-39
0.49836197 0.091285236 0.64349294 9.3936673e-39
0.5049668 0.095536418 0.64452082 9.3936673e-39
0.51164049 0.099736333 0.64689434 9.3936673e-39
0.51608449 0.10231473 0.64399701 9.3936673e-39
0.52452445 0.10700881 0.64583039 9.3936673e-39
0.53372705 0.11172903 0.64492798 9.3936673e-39
0.54387653 0.1163753 0.64697576 9.3936673e-39
0.44925925 0.054277416 0.65419388 9.3936673e-39
0.45229128 0.058030784 0.65559018 9.3936673e-39
0.46027985 0.054792732 0.65203959 9.3936673e-39
0.45667061 0.063466005 0.65448487 9.3936673e-39
0.46217012 0.067842804 0.6553579 9.3936673e-39
0.46793815 0.071684904 0.65489596 9.3936673e-39
0.47554979 0.076533176 0.6546483 9.3936673e-39
0.48516306 0.082983635 0.65551782 9.3936673e-39
0.49350938 0.087605253 0.65386933 9.3936673e-39
0.49820352 0.091431133 0.6546604 9.3936673e-39
0.5056445 0.096283339 0.65538275 9.3936673e-39
0.51025635 0.099269696 0.65300941 9.3936673e-39
0.51552588 0.10222802 0.65581286 9.3936673e-39
0.52480513 0.10721604 0.65489572 9.3936673e-39
0.53449929 0.11217777 0.65363371 9.3936673e-39
0.54236126 0.11611647 0.6544441 9.3936673e-39
0.45644632 0.049263727 0.66562831 9.3936673e-39
0.46168709 0.049462546 0.66258889 9.3936673e-39
0.44979984 0.053552233 0.66345054 9.3936673e-39
0.45131084 0.054793138 0.66639894 9.3936673e-39
0.45694 0.062860958 0.66509187 9.3936673e-39
0.46244916 0.067171693 0.66568363 9.3936673e-39
0.46694714 0.070997722 0.66539448 9.3936673e-39
0.47471306 0.076088019 0.66455829 9.3936673e-39
0.48053226 0.079859078 0.66800517 9.3936673e-39
0.48456898 0.082608305 0.66496289 9.3936673e-39
0.49251038 0.087860495 0.6655829 9.3936673e-39
0.48425213 0.092857324 0.66107655 9.3936673e-39
0.4974162 0.091021024 0.66390073 9.3936673e-39
0.50507301 0.095777705 0.66500396 9.3936673e-39
0.51540852 0.10215677 0.66528243 9.3936673e-39
0.52475399 0.10736649 0.66428995 9.3936673e-39
0.53445005 0.11252216 0.66514701 9.3936673e-39
0.5437606 0.11748445 0.66447288 9.3936673e-39
0.46235991 0.049226366 0.67360461 9.3936673e-39
0.45188016 0.054787807 0.67552179 9.3936673e-39
0.45688552 0.062617965 0.67610687 9.3936673e-39
0.46277496 0.067911834 0.6752398 9.3936673e-39
0.46777186 0.071509846 0.67440635 9.3936673e-39
0.47429505 0.075647265 0.67491299 9.3936673e-39
0.48026419 0.079572596 0.67371702 9.3936673e-39
0.48527324 0.082894258 0.67527008 9.3936673e-39
0.49265313 0.087703779 0.67492336 9.3936673e-39
0.49826413 0.091425344 0.67520547 9.3936673e-39
0.50447494 0.095463678 0.67495877 9.3936673e-39
0.51081336 0.09950456 0.67478049 9.3936673e-39
0.515935 0.1026817 0.67569536 9.3936673e-39
0.52421212 0.10736416 0.67520303 9.3936673e-39
0.52957475 0.11022513 0.67334092 9.3936673e-39
0.53547263 0.1134659 0.67536646 9.3936673e-39
0.54191285 0.11689495 0.6739319 9.3936673e-39
0.45636171 0.048711576 0.6896019 9.3936673e-39
