# .PCD v0.7 - Point Cloud Data file format
VERSION 0.7
FIELDS x y z rgb
SIZE 4 4 4 4
TYPE F F F F
COUNT 1 1 1 1
WIDTH 1016
HEIGHT 1
VIEWPOINT 0 0 0 1 0 0 0
POINTS 1016
DATA ascii
0.56651568 -0.045093879 0.61000019 1.0879084e-38
0.57584721 -0.044511281 0.61000025 1.0879084e-38
0.58506912 -0.044843882 0.61000037 1.0879084e-38
0.59457672 -0.045337532 0.61000043 1.0879084e-38
0.60547054 -0.044831064 0.61000049 1.0879084e-38
0.61510831 -0.044649631 0.61000055 1.0879084e-38
0.62506688 -0.04515342 0.61000055 1.0879084e-38
0.63500941 -0.04501994 0.61000055 1.0879084e-38
0.64444923 -0.044980705 0.61000061 1.0879084e-38
0.6546911 -0.044845477 0.61000067 1.0879084e-38
0.66509861 -0.045159727 0.61000067 1.0879084e-38
0.67478341 -0.044918515 0.61000067 1.0879084e-38
0.68462133 -0.045132112 0.61000073 1.0879084e-38
0.69373792 -0.045196347 0.61164433 1.0879084e-38
0.70043844 -0.048032701 0.61000097 1.0879084e-38
0.85830039 -0.047603052 0.61000204 1.0879084e-38
0.86426938 -0.04548502 0.6100021 1.0879084e-38
0.55786419 -0.033068512 0.61032438 1.0879084e-38
0.56545585 -0.035386369 0.61000031 1.0879084e-38
0.57570547 -0.034998346 0.61000031 1.0879084e-38
0.58506912 -0.034560211 0.61000037 1.0879084e-38
0.59457684 -0.034977913 0.61000043 1.0879084e-38
0.60515451 -0.035292055 0.61000049 1.0879084e-38
0.61510837 -0.035002969 0.61000049 1.0879084e-38
0.62522018 -0.034708615 0.61000055 1.0879084e-38
0.63517094 -0.034980711 0.61000055 1.0879084e-38
0.64413536 -0.035167243 0.61000061 1.0879084e-38
0.6546911 -0.034908988 0.61000067 1.0879084e-38
0.66542232 -0.035098247 0.61000067 1.0879084e-38
0.67478347 -0.034834895 0.61000067 1.0879084e-38
0.684883 -0.034820594 0.61163718 1.0787247e-38
0.69109368 -0.037891641 0.6121707 1.0694692e-38
0.85830039 -0.032020267 0.61000204 1.0879084e-38
0.86471313 -0.035222895 0.6100021 1.0879084e-38
0.34963727 -0.029885856 0.61280423 0
0.41657174 -0.025638781 0.6157794 1.0786889e-38
0.48673826 -0.026707264 0.61122209 1.0786889e-38
0.549389 -0.025493652 0.61000001 1.0879084e-38
0.56545597 -0.025259357 0.61000007 1.0879084e-38
0.57556218 -0.02548893 0.61000025 1.0879084e-38
0.5852598 -0.024672281 0.61000037 1.0879084e-38
0.59457672 -0.024618289 0.61000043 1.0879084e-38
0.60530394 -0.02500388 0.61000043 1.0879084e-38
0.61510837 -0.025356313 0.61000055 1.0879084e-38
0.62489545 -0.025027851 0.61000055 1.0879084e-38
0.63517106 -0.025187144 0.61000055 1.0879084e-38
0.64428526 -0.0246123 0.61000061 1.0879084e-38
0.65469116 -0.024972495 0.61000067 1.0879084e-38
0.66509873 -0.025134331 0.61000067 1.0879084e-38
0.67556429 -0.024291739 0.61149043 1.0879083e-38
0.68207753 -0.026371369 0.61231643 1.0787247e-38
0.84911132 -0.021374842 0.61000198 1.0879084e-38
0.85544837 -0.024367226 0.61000204 1.0879084e-38
0.86474776 -0.02519401 0.61009699 1.0879084e-38
0.549389 -0.012995317 0.61000001 1.0879084e-38
0.57570487 -0.015432531 0.61000037 1.0879084e-38
0.5848785 -0.015311047 0.61000037 1.0879084e-38
0.59474069 -0.01492678 0.61000037 1.0879084e-38
0.60530388 -0.01455857 0.61000043 1.0879084e-38
0.61510831 -0.014832683 0.61000055 1.0879084e-38
0.6250667 -0.015111089 0.61000055 1.0879084e-38
0.63517106 -0.01539358 0.61000055 1.0879084e-38
0.6442852 -0.014751999 0.61000061 1.0879084e-38
0.65469098 -0.015035999 0.61000067 1.0879084e-38
0.66525316 -0.015324259 0.61000067 1.0879084e-38
0.67384505 -0.015500617 0.61237907 1.097092e-38
0.84690338 -0.014282022 0.61000198 1.0879084e-38
0.85522938 -0.014288235 0.6100021 1.0879084e-38
0.8644914 -0.014504018 0.61000216 1.0879084e-38
0.52069706 -0.0014369497 0.61924279 1.0786889e-38
0.549389 -0.0088292081 0.61000001 1.0879084e-38
0.56545609 -0.0050053401 0.61000001 1.0879084e-38
0.57570499 -0.0052236528 0.61000007 1.0879084e-38
0.58506924 -0.0054231193 0.61000037 1.0879084e-38
0.59442973 -0.0054731769 0.61000043 1.0879084e-38
0.60530382 -0.0049836989 0.61000043 1.0879084e-38
0.61510837 -0.0051860185 0.61000049 1.0879084e-38
0.62506664 -0.0045079142 0.61000055 1.0879084e-38
0.63517112 -0.0047096931 0.61000055 1.0879084e-38
0.64428514 -0.004891701 0.61000061 1.0879084e-38
0.6546911 -0.0050995061 0.61000067 1.0879084e-38
0.66549236 -0.0053354171 0.61206967 1.0878724e-38
0.67118883 -0.0072575593 0.61000085 1.0879084e-38
0.83702624 -0.0015678518 0.61000192 1.0879084e-38
0.84483069 -0.0052015246 0.61000192 1.0879084e-38
0.85522932 -0.0049569667 0.61000204 1.0879084e-38
0.86449128 -0.005117265 0.6100021 1.0879084e-38
0.549389 0.0078352401 0.61000001 1.0786889e-38
0.57570499 0.0049852249 0.61000025 1.0879084e-38
0.58506912 0.004860559 0.61000037 1.0879084e-38
0.59457666 0.0047339825 0.61000043 1.0879084e-38
0.60530382 0.0045911698 0.61000043 1.0879084e-38
0.61491895 0.0045083775 0.61012614 1.0879084e-38
0.6250667 0.0052116625 0.61000055 1.0879084e-38
0.63517094 0.0050838692 0.61000055 1.0879084e-38
0.64428514 0.004968599 0.61000061 1.0879084e-38
0.65496725 0.0050407886 0.61059958 1.0786529e-38
0.66257793 0.0037251003 0.61216086 1.0878723e-38
0.83485228 0.005533536 0.61000198 1.0879084e-38
0.84456474 0.0044949846 0.61000186 1.0879084e-38
0.85522932 0.004374302 0.6100021 1.0879084e-38
0.86449128 0.0042694914 0.61000216 1.0879084e-38
0.549389 0.014501018 0.61000001 1.0786889e-38
0.56545597 0.015248684 0.61000001 1.0786889e-38
0.57570493 0.015194103 0.61000019 1.0879084e-38
0.58506912 0.015144237 0.61000037 1.0879084e-38
0.59457672 0.015093605 0.61000043 1.0879084e-38
0.60514832 0.015005173 0.61022693 1.0879084e-38
0.61510843 0.01498427 0.61000055 1.0879084e-38
0.62506664 0.01493124 0.61000055 1.0879084e-38
0.63517112 0.014877434 0.61000055 1.0879084e-38
0.64450651 0.015008377 0.6103459 1.0879084e-38
0.65374839 0.014128181 0.61122537 1.097092e-38
0.66515762 0.014031844 0.61653954 1.0879083e-38
0.82644343 0.016005382 0.61000186 1.0879084e-38
0.83403808 0.014841122 0.61000192 1.0879084e-38
0.84456462 0.01479207 0.61000186 1.0879084e-38
0.85522932 0.014742376 0.6100021 1.0879084e-38
0.86449116 0.014699221 0.61000216 1.0879084e-38
0.35542655 0.02958158 0.61431521 7.8366285e-39
0.4163883 0.02600098 0.61171621 1.0786889e-38
0.57570481 0.025402982 0.61000025 1.0786889e-38
0.58515829 0.025419893 0.61034876 1.0786889e-38
0.59457678 0.025453232 0.61000043 1.0786889e-38
0.60530394 0.025481792 0.61000049 1.0879084e-38
0.61510837 0.025507903 0.61000055 1.0879084e-38
0.62506682 0.025534416 0.61000055 1.0879084e-38
0.63500959 0.024924403 0.61000055 1.0879084e-38
0.6448223 0.024685489 0.61188114 1.1063474e-38
0.65061933 0.022449749 0.61000067 1.0879084e-38
0.81827307 0.026722798 0.6100018 1.0879084e-38
0.82513154 0.02505035 0.61000186 1.0879084e-38
0.83403802 0.025068136 0.61000192 1.0879084e-38
0.84476364 0.024914725 0.61020744 1.0879084e-38
0.85522932 0.025110455 0.61000198 1.0879084e-38
0.8644914 0.025128951 0.61000216 1.0879084e-38
0.38011321 0.037191492 0.61028969 1.0786889e-38
0.549389 0.031165466 0.61000001 1.0786889e-38
0.56545597 0.035502698 0.61000001 1.0786889e-38
0.57570499 0.035611864 0.61000025 1.0786889e-38
0.5848785 0.035319399 0.61000037 1.0786889e-38
0.59457666 0.034949552 0.61000037 1.0786889e-38
0.60530394 0.035056662 0.61000049 1.0786889e-38
0.61510843 0.035154559 0.61000049 1.0786889e-38
0.6250667 0.035253994 0.61000055 1.0786889e-38
0.6353184 0.034658983 0.61000055 1.0786889e-38
0.64285421 0.034216199 0.61251676 1.1063474e-38
0.8076213 0.03908702 0.61000174 1.0879084e-38
0.8153584 0.035469186 0.61000162 1.0879084e-38
0.82513154 0.035218079 0.61000186 1.0879084e-38
0.8340382 0.035295151 0.61000192 1.0879084e-38
0.84453344 0.035270747 0.61034459 1.0786889e-38
0.85522938 0.035478529 0.6100021 1.0879084e-38
0.8644914 0.035558682 0.61000216 1.0879084e-38
0.57554626 0.045162834 0.61000025 1.0786889e-38
0.58525968 0.044673525 0.61000037 1.0786889e-38
0.59457672 0.04444588 0.61000043 1.0786889e-38
0.60530394 0.044631537 0.61000043 1.0786889e-38
0.61510837 0.04480122 0.61000055 1.0786889e-38
0.62506664 0.044973571 0.61000055 1.0786889e-38
0.63534665 0.044967663 0.61039823 1.0786889e-38
0.64397198 0.045627557 0.61000061 1.0786889e-38
0.650967 0.048485048 0.61000067 1.0786889e-38
0.80552959 0.045996655 0.61000168 1.0879084e-38
0.8148737 0.045228757 0.61000162 1.0879084e-38
0.82513154 0.045385811 0.61000186 1.0879084e-38
0.83403802 0.045522168 0.61000192 1.0879084e-38
0.84456474 0.045683321 0.61000186 1.0879084e-38
0.85500997 0.045546431 0.61000204 1.0879084e-38
0.86449128 0.044945437 0.6100021 1.0879084e-38
0.55612022 0.051948532 0.61000007 1.0786889e-38
0.56207043 0.052019071 0.61000007 1.0786889e-38
0.57742631 0.050680783 0.61000013 1.0786889e-38
0.58506906 0.051137112 0.61000019 1.0786889e-38
0.59457672 0.052215595 0.61000025 1.0786889e-38
0.6048044 0.052185379 0.61000025 1.0786889e-38
0.61565745 0.05285399 0.61000043 1.0786889e-38
0.62498373 0.05508348 0.61000055 1.0786889e-38
0.63517106 0.054942004 0.61000055 1.0786889e-38
0.64428526 0.055166483 0.61000061 1.0786889e-38
0.65452588 0.055273596 0.61030459 1.0602497e-38
0.66433269 0.05788501 0.61000067 1.0786889e-38
0.79795045 0.055704571 0.61000162 1.0786889e-38
0.80474609 0.055105727 0.61000162 1.0786889e-38
0.8148737 0.055328198 0.61000162 1.0786889e-38
0.8251316 0.055553537 0.6100018 1.0786889e-38
0.8340382 0.055749178 0.61000192 1.0786889e-38
0.84429789 0.05524699 0.61000192 1.0786889e-38
0.85546553 0.054783352 0.6100021 1.0786889e-38
0.8644914 0.054332197 0.61000216 1.0786889e-38
0.37335679 0.068468451 0.61616892 1.0786889e-38
0.62804008 0.06155597 0.61000043 1.0786889e-38
0.635548 0.064197503 0.61000055 1.0786889e-38
0.64428526 0.065026782 0.61000061 1.0786889e-38
0.65453023 0.06519784 0.61000067 1.0786889e-38
0.66525328 0.064786404 0.61000067 1.0786889e-38
0.67428166 0.066283487 0.61051714 1.0786889e-38
0.68161041 0.068369299 0.61000085 1.0786889e-38
0.7952311 0.065196656 0.61000156 1.0786889e-38
0.80474609 0.065137766 0.61000162 1.0786889e-38
0.81487358 0.065427646 0.61000168 1.0786889e-38
0.8251316 0.065721266 0.61000186 1.0786889e-38
0.83380854 0.065339662 0.61000198 1.0786889e-38
0.84480333 0.064440742 0.61000186 1.0786889e-38
0.85522932 0.064509146 0.61000216 1.0786889e-38
0.86449116 0.064761929 0.61000216 1.0786889e-38
0.64514542 0.07245522 0.61000061 1.0786889e-38
0.6551767 0.0747879 0.61000067 1.0786889e-38
0.66525322 0.074800231 0.61000067 1.0786889e-38
0.67478353 0.075168185 0.61000067 1.0786889e-38
0.68425506 0.074805722 0.61000079 1.0786889e-38
0.69375449 0.077202454 0.61000091 1.0786889e-38
0.70418805 0.078175977 0.61000103 1.0786889e-38
0.71427059 0.078578666 0.61000109 1.0786889e-38
0.72394615 0.07882905 0.61000109 1.0786889e-38
0.73487568 0.078444928 0.61000121 1.0786889e-38
0.74540466 0.07885845 0.61000127 1.0786889e-38
0.75474197 0.07922516 0.61000133 1.0786889e-38
0.76443386 0.078684434 0.61121291 1.0786889e-38
0.77471262 0.079351962 0.6100015 1.0786889e-38
0.78573728 0.07568603 0.61000156 1.0786889e-38
0.79475921 0.074817464 0.61000156 1.0786889e-38
0.80474609 0.075169794 0.61000162 1.0786889e-38
0.8148737 0.075527094 0.61000162 1.0786889e-38
0.82492065 0.075590491 0.61000192 1.0786889e-38
0.83425122 0.074456684 0.61000198 1.0786889e-38
0.84456474 0.074515164 0.61000186 1.0786889e-38
0.85522932 0.074877225 0.61000198 1.0786889e-38
0.86449146 0.075191654 0.61000216 1.0786889e-38
0.49181026 0.087463029 0.61997104 8.3064685e-39
0.65857792 0.081488132 0.61000067 1.0786889e-38
0.66588998 0.083443254 0.61000067 1.0786889e-38
0.67478359 0.085251793 0.61000073 1.0786889e-38
0.68444735 0.08477255 0.61000079 1.0786889e-38
0.69408679 0.08500623 0.61000079 1.0786889e-38
0.70418811 0.084729835 0.61000091 1.0786889e-38
0.71427053 0.085179508 0.61000091 1.0786889e-38
0.72468293 0.085371777 0.61000127 1.0786889e-38
0.73470503 0.084925756 0.61000133 1.0786889e-38
0.74540454 0.084640659 0.61000139 1.0786889e-38
0.75474197 0.085044652 0.61000144 1.0786889e-38
0.76420647 0.085454173 0.6100015 1.0786889e-38
0.77523679 0.085180506 0.61000156 1.0786889e-38
0.78489774 0.084369443 0.61000156 1.0786889e-38
0.79496592 0.084590152 0.61024505 1.0786889e-38
0.80474609 0.085201822 0.61000168 1.0786889e-38
0.81487381 0.085626535 0.61000168 1.0786889e-38
0.82513189 0.085038558 0.61000192 1.0786889e-38
0.83403802 0.084384829 0.61000192 1.0786889e-38
0.84456462 0.084812254 0.61000186 1.0786889e-38
0.85522932 0.085245304 0.61000198 1.0786889e-38
0.86449116 0.085621379 0.61000216 1.0786889e-38
0.51224738 0.098247752 0.61949933 8.4901451e-39
0.52216959 0.099384941 0.61872315 1.0694693e-38
0.67646199 0.091570385 0.61000085 1.0786889e-38
0.68494797 0.094411276 0.61000085 1.0786889e-38
0.69442433 0.095185265 0.61000085 1.0786889e-38
0.70418811 0.095028736 0.61000085 1.0786889e-38
0.71427059 0.094609283 0.61000097 1.0786889e-38
0.72449869 0.095133536 0.61000121 1.0786889e-38
0.73506254 0.095400892 0.61000127 1.0786889e-38
0.74516356 0.094790332 0.61000139 1.0786889e-38
0.75474209 0.094743825 0.61000144 1.0786889e-38
0.76420641 0.095216349 0.6100015 1.0786889e-38
0.77536875 0.095491827 0.61000156 1.0786889e-38
0.7848978 0.094269365 0.61000156 1.0786889e-38
0.79475915 0.094748549 0.61000156 1.0786889e-38
0.80474627 0.09523385 0.61000168 1.0786889e-38
0.81487381 0.095725998 0.61000168 1.0786889e-38
0.8253423 0.094490819 0.61000186 1.0786889e-38
0.83403814 0.094611838 0.61000192 1.0786889e-38
0.84456462 0.095109336 0.61000186 1.0786889e-38
0.85522926 0.095613368 0.61000198 1.0786889e-38
0.86449128 0.095008127 0.6100021 1.0786889e-38
0.37003937 0.10615122 0.61941153 1.0786889e-38
0.49825495 0.10249277 0.61894923 1.0786889e-38
0.69548172 0.10295258 0.61000097 1.0786889e-38
0.70438546 0.10514277 0.61000091 1.0786889e-38
0.71427059 0.10498202 0.61000091 1.0786889e-38
0.72449881 0.10463139 0.61000109 1.0786889e-38
0.73487568 0.10523234 0.61000127 1.0786889e-38
0.74564552 0.10532944 0.61000133 1.0786889e-38
0.75474191 0.10444302 0.61000144 1.0786889e-38
0.76420641 0.10497852 0.6100015 1.0786889e-38
0.77517128 0.10559893 0.6100015 1.0786889e-38
0.78472292 0.10453015 0.61000156 1.0786889e-38
0.79468906 0.10475813 0.61018902 1.0786889e-38
0.80474609 0.10526589 0.61000162 1.0786889e-38
0.81464344 0.10559948 0.61000168 1.0786889e-38
0.8251316 0.10435864 0.61000186 1.0786889e-38
0.83403814 0.10483886 0.61000192 1.0786889e-38
0.84456462 0.10540643 0.61000186 1.0786889e-38
0.8549934 0.10533006 0.61000204 1.0786889e-38
0.86449116 0.1043949 0.61000216 1.0786889e-38
0.32917684 0.11285439 0.61161512 7.7444329e-39
0.36482215 0.11504091 0.61712885 1.0786889e-38
0.45323145 0.11931363 0.61190856 1.0786889e-38
0.512034 0.11172891 0.61286116 8.3064699e-39
0.55469894 0.11850613 0.61000007 1.0786889e-38
0.70710927 0.11175585 0.61000103 1.0786889e-38
0.71427059 0.11346882 0.61000109 1.0786889e-38
0.72449875 0.11412923 0.61000121 1.0786889e-38
0.73487568 0.11479928 0.61000127 1.0786889e-38
0.7454046 0.11547913 0.61000133 1.0786889e-38
0.7545839 0.1148162 0.61000144 1.0786889e-38
0.76420635 0.11474069 0.6100015 1.0786889e-38
0.7751714 0.11543407 0.61000156 1.0786889e-38
0.78489769 0.11472793 0.61000156 1.0786889e-38
0.79475915 0.11467966 0.61000156 1.0786889e-38
0.80474609 0.11529792 0.61000162 1.0786889e-38
0.81479728 0.11517426 0.61000168 1.0786889e-38
0.8251316 0.11452637 0.6100018 1.0786889e-38
0.83403802 0.11506587 0.61000192 1.0786889e-38
0.8443253 0.1154716 0.61000186 1.0786889e-38
0.85544842 0.11458454 0.61000204 1.0786889e-38
0.86449146 0.11482462 0.61000216 1.0786889e-38
0.44093913 0.12675147 0.61770171 1.0786889e-38
0.57513154 0.12678283 0.61000001 1.0786889e-38
0.58472002 0.12795092 0.61000019 1.0786889e-38
0.59305537 0.12880036 0.61000019 1.0786889e-38
0.60746527 0.12880549 0.61000037 1.0786889e-38
0.61291271 0.12968746 0.61000037 1.0786889e-38
0.72836661 0.12009315 0.61000115 1.0786889e-38
0.73618156 0.12377699 0.61000115 1.0786889e-38
0.7454046 0.12511612 0.61000133 1.0786889e-38
0.75491005 0.12542877 0.61000144 1.0786889e-38
0.76420635 0.12450287 0.61000144 1.0786889e-38
0.77517116 0.12526926 0.61000156 1.0786889e-38
0.78489751 0.1249579 0.61000156 1.0786889e-38
0.79475921 0.12464523 0.61000162 1.0786889e-38
0.80474627 0.12532996 0.61000162 1.0786889e-38
0.8148737 0.12501243 0.61000168 1.0786889e-38
0.8251316 0.1246941 0.61000186 1.0786889e-38
0.83403808 0.12529288 0.61000192 1.0786889e-38
0.84456533 0.12496926 0.61000186 1.0786889e-38
0.85522944 0.12464397 0.61000198 1.0786889e-38
0.86449128 0.12525436 0.61000216 1.0786889e-38
0.57577634 0.13480128 0.61000001 1.0786889e-38
0.58506912 0.13512047 0.61000037 1.0786889e-38
0.59465319 0.13491274 0.61000043 1.0786889e-38
0.60555005 0.13513389 0.61055779 1.0602497e-38
0.61304587 0.13447174 0.61053228 1.0325911e-38
0.73880005 0.13232017 0.61000127 1.0786889e-38
0.74561369 0.1345671 0.61000133 1.0786889e-38
0.75474197 0.13548037 0.61000144 1.0786889e-38
0.76401228 0.13452831 0.6100015 1.0786889e-38
0.77517116 0.1351044 0.61000156 1.0786889e-38
0.78489774 0.13518773 0.61000156 1.0786889e-38
0.79475915 0.13461076 0.61000162 1.0786889e-38
0.80474609 0.13536197 0.61000162 1.0786889e-38
0.81495047 0.13485201 0.61000162 1.0786889e-38
0.8251316 0.13486181 0.6100018 1.0786889e-38
0.83403808 0.13551991 0.61000192 1.0786889e-38
0.84480333 0.13447173 0.61000186 1.0786889e-38
0.85522932 0.13501206 0.61000198 1.0786889e-38
0.86426938 0.13536939 0.6100021 1.0786889e-38
0.38916823 0.14594601 0.6104871 1.0694693e-38
0.46011126 0.14559111 0.61256975 1.0786889e-38
0.5421555 0.14139976 0.61169547 1.0786889e-38
0.57584721 0.1446664 0.61000019 1.0786889e-38
0.58493227 0.14520429 0.61000037 1.0786889e-38
0.59472328 0.1447511 0.61000043 1.0786889e-38
0.60507202 0.1452693 0.61000043 1.0786889e-38
0.6131658 0.14493224 0.61000049 1.0786889e-38
0.74731904 0.1428376 0.61000127 1.0786889e-38
0.75474203 0.14517954 0.61000144 1.0786889e-38
0.76414144 0.14476405 0.6100015 1.0786889e-38
0.77517134 0.14493956 0.6100015 1.0786889e-38
0.78507274 0.14539149 0.61000156 1.0786889e-38
0.79475915 0.14457634 0.61000156 1.0786889e-38
0.80474609 0.14539401 0.61000162 1.0786889e-38
0.8148737 0.14470685 0.61000168 1.0786889e-38
0.82513154 0.14502956 0.61000186 1.0786889e-38
0.83382469 0.14543696 0.61000198 1.0786889e-38
0.84456474 0.14453533 0.61000186 1.0786889e-38
0.85522938 0.14538017 0.61000198 1.0786889e-38
0.86473024 0.14468768 0.6100021 1.0786889e-38
0.57570499 0.15471543 0.61000019 1.0786889e-38
0.5850237 0.15504847 0.61000037 1.0786889e-38
0.59457672 0.15494855 0.61000043 1.0786889e-38
0.60538155 0.15499759 0.61000043 1.0786889e-38
0.61496508 0.15509371 0.61000055 1.0786889e-38
0.62466216 0.15779246 0.61000049 1.0786889e-38
0.63290787 0.15887792 0.61000049 1.0786889e-38
0.75515503 0.15476742 0.61000144 1.0786889e-38
0.76427096 0.15500239 0.6100015 1.0786889e-38
0.77517134 0.15477473 0.6100015 1.0786889e-38
0.78489763 0.1556488 0.61000156 1.0786889e-38
0.79475915 0.15454188 0.61000162 1.0786889e-38
0.80474621 0.15542604 0.61000162 1.0786889e-38
0.81487381 0.15480629 0.61000168 1.0786889e-38
0.82513154 0.15519728 0.61000186 1.0786889e-38
0.83403838 0.15494983 0.61000198 1.0786889e-38
0.84456462 0.15483244 0.61000186 1.0786889e-38
0.85500997 0.15543255 0.61000204 1.0786889e-38
0.86449128 0.15445758 0.61000216 1.0786889e-38
0.4651126 0.16936544 0.61109537 1.0786889e-38
0.57570493 0.16492431 0.61000007 1.0786889e-38
0.5851149 0.16489479 0.61000037 1.0786889e-38
0.59442985 0.16514257 0.61000043 1.0786889e-38
0.6054529 0.16491847 0.61000049 1.0786889e-38
0.61510867 0.16494483 0.61000055 1.0786889e-38
0.6249128 0.16497344 0.61000055 1.0786889e-38
0.63537687 0.16487779 0.61000055 1.0786889e-38
0.64364791 0.16575326 0.61000055 1.0786889e-38
0.65435779 0.16752794 0.61000061 1.0786889e-38
0.66525316 0.16856612 0.61000073 1.0786889e-38
0.7252723 0.1689157 0.61000115 1.0786889e-38
0.73531175 0.16756579 0.61000121 1.0786889e-38
0.7461412 0.16587687 0.61000133 1.0786889e-38
0.75474197 0.16457792 0.61000144 1.0786889e-38
0.76434118 0.16508467 0.61027175 1.0786889e-38
0.77517128 0.16460988 0.6100015 1.0786889e-38
0.78489774 0.1655487 0.61000156 1.0786889e-38
0.79475915 0.16450742 0.61000156 1.0786889e-38
0.80474621 0.16545807 0.61000162 1.0786889e-38
0.81510335 0.16463578 0.61000168 1.0786889e-38
0.8251316 0.165365 0.61000186 1.0786889e-38
0.83425128 0.1644669 0.61000198 1.0786889e-38
0.84456474 0.16512951 0.61000186 1.0786889e-38
0.85522974 0.16507804 0.61000204 1.0786889e-38
0.86449128 0.16488732 0.61000216 1.0786889e-38
0.57570487 0.17513321 0.61000001 1.0786889e-38
0.58520585 0.17474328 0.61000037 1.0786889e-38
0.59436738 0.17520244 0.61031747 1.0786889e-38
0.60515445 0.17502987 0.61000049 1.0786889e-38
0.61525148 0.1747994 0.61000055 1.0786889e-38
0.62498754 0.17504112 0.61000055 1.0786889e-38
0.63517094 0.17513575 0.61000055 1.0786889e-38
0.64449382 0.17481683 0.61000055 1.0786889e-38
0.65443254 0.17503205 0.61000067 1.0786889e-38
0.66525322 0.17493857 0.61000067 1.0786889e-38
0.67478341 0.17508766 0.61000067 1.0786889e-38
0.6842038 0.17687272 0.61000079 1.0786889e-38
0.69424796 0.17725141 0.61000097 1.0786889e-38
0.70447707 0.17665775 0.61000103 1.0786889e-38
0.71465147 0.17565106 0.61000097 1.0786889e-38
0.72449875 0.17491552 0.61000103 1.0786889e-38
0.73487526 0.1750697 0.61000133 1.0786889e-38
0.74540472 0.17522864 0.61000133 1.0786889e-38
0.7545743 0.17462257 0.61000144 1.0786889e-38
0.76420647 0.17526618 0.61000144 1.0786889e-38
0.77497435 0.17470495 0.6100015 1.0786889e-38
0.78519535 0.17563657 0.61003548 1.0786889e-38
0.79475921 0.17447297 0.61000156 1.0786889e-38
0.80474639 0.17549011 0.61000162 1.0786889e-38
0.81487381 0.17450166 0.61000168 1.0786889e-38
0.82513154 0.17553274 0.6100018 1.0786889e-38
0.83403808 0.17438258 0.61000192 1.0786889e-38
0.8443253 0.17518549 0.61000186 1.0786889e-38
0.85544837 0.17472781 0.61000204 1.0786889e-38
0.86449128 0.17531705 0.61000216 1.0786889e-38
0.4917697 0.18624581 0.61298203 1.0786889e-38
0.57556224 0.18517666 0.61000013 1.0786889e-38
0.58506918 0.18482493 0.61000037 1.0786889e-38
0.59465313 0.1849872 0.61000043 1.0786889e-38
0.60521823 0.18499659 0.61031783 1.0694693e-38
0.61510843 0.18511629 0.61000055 1.0786889e-38
0.62530535 0.18492606 0.61000055 1.0786889e-38
0.63500965 0.18516338 0.61000055 1.0786889e-38
0.64413536 0.18492964 0.61000055 1.0786889e-38
0.65494061 0.18494891 0.61000067 1.0786889e-38
0.66508454 0.18519171 0.61000073 1.0786889e-38
0.67462689 0.18495288 0.61000067 1.0786889e-38
0.68462133 0.18514922 0.61000073 1.0786889e-38
0.69426769 0.18501195 0.61023772 1.0786889e-38
0.70418763 0.18490909 0.61000085 1.0786889e-38
0.71427059 0.18513511 0.61000097 1.0786889e-38
0.72426468 0.18490386 0.61000097 1.0786889e-38
0.73506254 0.18534176 0.61000127 1.0786889e-38
0.74540472 0.18486565 0.61000133 1.0786889e-38
0.75474179 0.18494502 0.61000144 1.0786889e-38
0.76420641 0.18502834 0.6100015 1.0786889e-38
0.77517116 0.18477058 0.6100015 1.0786889e-38
0.78489769 0.18534853 0.61000156 1.0786889e-38
0.79455692 0.1847005 0.61000156 1.0786889e-38
0.80474609 0.18552214 0.61000162 1.0786889e-38
0.8148737 0.1846011 0.61000162 1.0786889e-38
0.82492065 0.18538679 0.61000186 1.0786889e-38
0.83403802 0.18460959 0.61000192 1.0786889e-38
0.84448534 0.18495476 0.61000186 1.0786889e-38
0.85522938 0.18477884 0.61000198 1.0786889e-38
0.86426938 0.18542501 0.6100021 1.0786889e-38
0.4484852 0.19905315 0.6199491 6.7295005e-39
0.5245257 0.19341579 0.61661965 1.0786889e-38
0.57563388 0.19504121 0.61000019 1.0786889e-38
0.58506918 0.19510865 0.61000037 1.0786889e-38
0.59472334 0.19482832 0.61000043 1.0786889e-38
0.60538155 0.19504033 0.61000055 1.0786889e-38
0.61464256 0.19489515 0.61040092 1.0786889e-38
0.62491274 0.19501227 0.61000055 1.0786889e-38
0.63531858 0.19493496 0.61000055 1.0786889e-38
0.64428562 0.19500227 0.61000055 1.0786889e-38
0.65444148 0.19508168 0.61000061 1.0786889e-38
0.6654073 0.19518313 0.61000067 1.0786889e-38
0.67495501 0.19501387 0.61000067 1.0786889e-38
0.68427378 0.19486588 0.61000073 1.0786889e-38
0.69424754 0.19491361 0.61000079 1.0786889e-38
0.70436698 0.19496302 0.61000091 1.0786889e-38
0.71408951 0.19481151 0.61000097 1.0786889e-38
0.7245599 0.19509315 0.61000121 1.0786889e-38
0.73487568 0.19516151 0.61000127 1.0786889e-38
0.74521554 0.19475472 0.61000133 1.0786889e-38
0.75491005 0.19527088 0.61000144 1.0786889e-38
0.76420653 0.19479053 0.6100015 1.0786889e-38
0.77510518 0.19485547 0.6100015 1.0786889e-38
0.78489769 0.19524843 0.61000156 1.0786889e-38
0.79475915 0.19490094 0.61000156 1.0786889e-38
0.80474633 0.19555418 0.61000162 1.0786889e-38
0.8148737 0.19470055 0.61000162 1.0786889e-38
0.82513165 0.19518901 0.6100018 1.0786889e-38
0.8340382 0.1948366 0.61000186 1.0786889e-38
0.84456462 0.19498906 0.61000186 1.0786889e-38
0.85522932 0.1951469 0.61000198 1.0786889e-38
0.86449152 0.19513209 0.6100021 1.0786889e-38
0.44422254 0.20485292 0.61719805 4.425365e-39
0.57570517 0.20490742 0.61000007 1.0786889e-38
0.58493227 0.20518604 0.61000037 1.0786889e-38
0.59457684 0.20502006 0.61000043 1.0786889e-38
0.60545284 0.20496337 0.61000049 1.0786889e-38
0.61530066 0.20471722 0.61013061 1.0786889e-38
0.62498754 0.20508163 0.61000055 1.0786889e-38
0.63496518 0.20497316 0.61000055 1.0786889e-38
0.64443457 0.20507844 0.61000055 1.0786889e-38
0.65495008 0.20500602 0.61000061 1.0786889e-38
0.66508442 0.20521691 0.61000067 1.0786889e-38
0.67456543 0.20489201 0.61000067 1.0786889e-38
0.68460578 0.20499983 0.61000079 1.0786889e-38
0.69442433 0.20489772 0.61000079 1.0786889e-38
0.70400947 0.20481546 0.61000091 1.0786889e-38
0.71427011 0.20493641 0.61000085 1.0786889e-38
0.72468293 0.20506023 0.61000121 1.0786889e-38
0.73468924 0.20497733 0.61000127 1.0786889e-38
0.7453413 0.20486446 0.61000133 1.0786889e-38
0.75474203 0.20531443 0.61000144 1.0786889e-38
0.76401228 0.20480672 0.61000144 1.0786889e-38
0.7751714 0.20493221 0.6100015 1.0786889e-38
0.78489774 0.20514831 0.61000156 1.0786889e-38
0.79475915 0.2048665 0.61000156 1.0786889e-38
0.80474633 0.20558621 0.61000162 1.0786889e-38
0.8148737 0.20480001 0.61000168 1.0786889e-38
0.82513195 0.20501778 0.61000192 1.0786889e-38
0.83403814 0.20506361 0.61000192 1.0786889e-38
0.84464467 0.20502482 0.61000186 1.0786889e-38
0.85500997 0.20519233 0.61000204 1.0786889e-38
0.86471283 0.20484349 0.6100021 1.0786889e-38
0.43850914 0.21127975 0.61855274 4.9789101e-39
0.57570493 0.21494617 0.61000031 1.0786889e-38
0.5850237 0.21503448 0.61000037 1.0786889e-38
0.59434861 0.2150366 0.61000043 1.0786889e-38
0.60515451 0.21506564 0.61000049 1.0786889e-38
0.61510837 0.21493323 0.61000055 1.0786889e-38
0.62530529 0.21497381 0.61000055 1.0786889e-38
0.63537681 0.21474361 0.61000055 1.0786889e-38
0.64407659 0.21518235 0.61000055 1.0786889e-38
0.65444136 0.21495101 0.61000061 1.0786889e-38
0.66525275 0.21499278 0.61000067 1.0786889e-38
0.67500156 0.21495189 0.61000067 1.0786889e-38
0.68427378 0.21517211 0.61000073 1.0786889e-38
0.69402367 0.21491264 0.61000079 1.0786889e-38
0.70418769 0.21486959 0.61000085 1.0786889e-38
0.71445221 0.21506497 0.61000097 1.0786889e-38
0.72431499 0.21505235 0.61000121 1.0786889e-38
0.73481321 0.21501441 0.61000127 1.0786889e-38
0.74546766 0.21497674 0.61000133 1.0786889e-38
0.75474203 0.21501359 0.61000144 1.0786889e-38
0.76414144 0.21504857 0.6100015 1.0786889e-38
0.77523667 0.21501039 0.6100015 1.0786889e-38
0.7848978 0.21504822 0.61000156 1.0786889e-38
0.79475915 0.21483204 0.61000156 1.0786889e-38
0.80454099 0.21530466 0.61000162 1.0786889e-38
0.8148737 0.21489947 0.61000162 1.0786889e-38
0.82513154 0.21484666 0.61000174 1.0786889e-38
0.83403814 0.21529062 0.61000192 1.0786889e-38
0.84480333 0.21480142 0.61000186 1.0786889e-38
0.85522956 0.21484482 0.61000204 1.0786889e-38
0.86449134 0.21495001 0.61000216 1.0786889e-38
0.42547011 0.22753343 0.61465269 5.8083065e-39
0.5757764 0.22498477 0.61000019 1.0694693e-38
0.58511484 0.22488508 0.61000037 1.0694693e-38
0.5945769 0.22487429 0.61000043 1.0694693e-38
0.60522699 0.22498624 0.61000043 1.0694693e-38
0.61490875 0.22502679 0.61000037 1.0694693e-38
0.62507153 0.22518845 0.61027408 1.0602497e-38
0.63483751 0.22492804 0.61105627 1.0326271e-38
0.6440208 0.22309464 0.61000055 1.0786889e-38
0.65541887 0.22298254 0.61000061 1.0786889e-38
0.66546214 0.22385983 0.61000067 1.0786889e-38
0.67478335 0.22458903 0.61000073 1.0786889e-38
0.68444693 0.22508641 0.61000073 1.0786889e-38
0.69447231 0.22511788 0.61000085 1.0786889e-38
0.70436704 0.22492729 0.61000091 1.0786889e-38
0.71408951 0.2249829 0.61000091 1.0786889e-38
0.72443718 0.22501782 0.61000121 1.0786889e-38
0.73493767 0.22505409 0.61000127 1.0786889e-38
0.74559432 0.22509167 0.61000133 1.0786889e-38
0.75474209 0.22471277 0.61000144 1.0786889e-38
0.76420635 0.22505149 0.61000144 1.0786889e-38
0.7751711 0.22509475 0.6100015 1.0786889e-38
0.78489769 0.22494812 0.61000156 1.0786889e-38
0.79475915 0.22479764 0.61000162 1.0786889e-38
0.80474639 0.22498019 0.61000162 1.0786889e-38
0.8148737 0.22499891 0.61000168 1.0786889e-38
0.8253423 0.2246557 0.61000186 1.0786889e-38
0.83382463 0.22519657 0.61000198 1.0786889e-38
0.84456474 0.22485261 0.61000186 1.0786889e-38
0.85522932 0.22486737 0.61000198 1.0786889e-38
0.86449116 0.22537975 0.61000216 1.0786889e-38
0.57570493 0.2350242 0.61000007 1.0694693e-38
0.58506912 0.23495685 0.61000037 1.0694693e-38
0.59465033 0.23488902 0.61000043 1.0694693e-38
0.60537857 0.23490897 0.61000043 1.0694693e-38
0.61515623 0.23488119 0.61000049 1.0694693e-38
0.62460589 0.23517732 0.61151063 9.9574868e-39
0.63268232 0.23225836 0.61000049 1.0694693e-38
0.67718256 0.2304517 0.61000085 1.0786889e-38
0.68531621 0.23366059 0.61000091 1.0694693e-38
0.69407189 0.23512775 0.61000085 1.0694693e-38
0.70396048 0.23500776 0.61000085 1.0694693e-38
0.71420991 0.23487784 0.61000097 1.0694693e-38
0.7245599 0.23498587 0.61000109 1.0694693e-38
0.73506254 0.23509628 0.61000127 1.0694693e-38
0.74540472 0.23497815 0.61000133 1.0786889e-38
0.7545743 0.23475054 0.61000144 1.0786889e-38
0.76427108 0.23505576 0.6100015 1.0786889e-38
0.77536863 0.23516977 0.6100015 1.0786889e-38
0.78489769 0.23484805 0.61000156 1.0786889e-38
0.79475921 0.23476319 0.61000162 1.0786889e-38
0.80474621 0.23501223 0.61000162 1.0786889e-38
0.8148737 0.23509836 0.61000168 1.0786889e-38
0.8251316 0.23450556 0.6100018 1.0786889e-38
0.83403808 0.23506151 0.61000192 1.0786889e-38
0.84481305 0.23508795 0.61035949 1.0786889e-38
0.85544842 0.23487115 0.61000204 1.0786889e-38
0.86426926 0.23548062 0.6100021 1.0786889e-38
0.34389398 0.24588154 0.61526448 1.0694693e-38
0.57584715 0.24506488 0.61000007 1.0694693e-38
0.58520573 0.24502255 0.61000037 1.0694693e-38
0.59472322 0.24490547 0.61000043 1.0694693e-38
0.6054529 0.24500832 0.61000043 1.0694693e-38
0.61553484 0.24520232 0.61208266 9.5887042e-39
0.62192726 0.24274713 0.61044741 9.957128e-39
0.69578904 0.24233775 0.61000091 1.0694693e-38
0.70443785 0.24487002 0.61000091 1.0694693e-38
0.71450144 0.24500675 0.61000091 1.0694693e-38
0.72468293 0.24495637 0.61000115 1.0694693e-38
0.73487568 0.24490955 0.61000127 1.0694693e-38
0.74521554 0.24486065 0.61000133 1.0694693e-38
0.75474179 0.2450799 0.61000144 1.0694693e-38
0.76420641 0.24506435 0.61000144 1.0694693e-38
0.77492917 0.24529937 0.61042243 1.0694693e-38
0.78489763 0.24474794 0.61000156 1.0694693e-38
0.79469144 0.24497946 0.61000156 1.0694693e-38
0.80474621 0.24504425 0.61000162 1.0694693e-38
0.81487381 0.24519777 0.61000168 1.0694693e-38
0.82513165 0.24467328 0.61000186 1.0694693e-38
0.83403844 0.2449476 0.61000198 1.0694693e-38
0.8443253 0.24519481 0.61000186 1.0694693e-38
0.85522932 0.24491367 0.61000198 1.0786889e-38
0.86449158 0.24519481 0.6100021 1.0786889e-38
0.57556224 0.25492957 0.61000025 1.0694693e-38
0.5849359 0.25514197 0.61025614 1.0694693e-38
0.59442979 0.25491586 0.61000043 1.0694693e-38
0.60544264 0.25513184 0.61117989 9.8656513e-39
0.61258262 0.25284252 0.61182755 9.4043144e-39
0.70794648 0.25105929 0.61000103 1.0694693e-38
0.71469325 0.25467142 0.61000091 1.0694693e-38
0.72431511 0.25493824 0.61000097 1.0694693e-38
0.73463815 0.25495893 0.61000133 1.0694693e-38
0.74534124 0.25497475 0.61000133 1.0694693e-38
0.75474203 0.25510231 0.61000144 1.0694693e-38
0.76440102 0.25506729 0.61000144 1.0694693e-38
0.77517128 0.25509337 0.6100015 1.0694693e-38
0.78489774 0.25464788 0.61000156 1.0694693e-38
0.79475915 0.25519207 0.61000162 1.0694693e-38
0.80474627 0.25507626 0.61000162 1.0694693e-38
0.81464356 0.25504863 0.61000162 1.0694693e-38
0.8251316 0.254841 0.6100018 1.0694693e-38
0.8340382 0.25483379 0.61000192 1.0694693e-38
0.84448534 0.25497136 0.61000186 1.0694693e-38
0.85522932 0.25528175 0.61000198 1.0694693e-38
0.86471283 0.2549133 0.6100021 1.0694693e-38
0.57570499 0.26497021 0.61000025 1.0694693e-38
0.58493215 0.2651678 0.61000037 1.0694693e-38
0.59488821 0.2652334 0.61064386 1.0142238e-38
0.60335523 0.26359183 0.61182922 9.0369682e-39
0.71666878 0.26559326 0.61000109 1.0694693e-38
0.7244373 0.26490712 0.61000115 1.0694693e-38
0.73487568 0.26499835 0.61000127 1.0694693e-38
0.74546766 0.26509148 0.61000133 1.0694693e-38
0.75491005 0.26511297 0.61000144 1.0694693e-38
0.76420647 0.26507819 0.6100015 1.0694693e-38
0.77517116 0.26492855 0.6100015 1.0694693e-38
0.78489774 0.2645478 0.61000156 1.0694693e-38
0.79475921 0.26515764 0.61000162 1.0694693e-38
0.80474627 0.26510832 0.61000162 1.0694693e-38
0.81487381 0.26489025 0.61000168 1.0694693e-38
0.8251316 0.26500872 0.6100018 1.0694693e-38
0.83425128 0.26470557 0.61000198 1.0694693e-38
0.84456474 0.26500922 0.61000186 1.0694693e-38
0.85501003 0.26531869 0.61000204 1.0694693e-38
0.86449128 0.26501271 0.61000216 1.0694693e-38
0.50978816 0.27772057 0.61016333 1.0694693e-38
0.5850237 0.27502045 0.61000025 1.0694693e-38
0.5939917 0.27456713 0.6119777 8.9454914e-39
0.60098475 0.27099192 0.61000031 1.0694693e-38
0.70710927 0.27813032 0.61000103 1.0694693e-38
0.71452409 0.27513847 0.61000097 1.0694693e-38
0.72455978 0.27487856 0.61000127 1.0694693e-38
0.73493767 0.27480426 0.61000127 1.0694693e-38
0.74540466 0.27497047 0.61000133 1.0694693e-38
0.75474203 0.27514848 0.61000144 1.0694693e-38
0.7640124 0.27508506 0.61000144 1.0694693e-38
0.77497429 0.27501023 0.6100015 1.0694693e-38
0.78472292 0.27478856 0.61000156 1.0694693e-38
0.79475915 0.27512318 0.61000162 1.0694693e-38
0.80474633 0.27514035 0.61000162 1.0694693e-38
0.81487381 0.27498969 0.61000168 1.0694693e-38
0.82513165 0.2751765 0.61000186 1.0694693e-38
0.83390552 0.27485439 0.61014092 1.0694693e-38
0.84464467 0.27504861 0.61000186 1.0694693e-38
0.85522956 0.27497968 0.61000204 1.0694693e-38
0.86426938 0.27510795 0.6100021 1.0694693e-38
0.57570487 0.28504714 0.61000019 1.0694693e-38
0.58540118 0.28510666 0.61215734 8.6696234e-39
0.59142947 0.28239256 0.61064911 1.0326629e-38
0.70528299 0.28587785 0.61000097 1.0694693e-38
0.71445221 0.28485426 0.61000097 1.0694693e-38
0.72468293 0.28485253 0.61000127 1.0694693e-38
0.73506254 0.28485081 0.61000127 1.0694693e-38
0.74559432 0.28484902 0.61000133 1.0694693e-38
0.75474203 0.28484768 0.61000144 1.0694693e-38
0.76420635 0.28508925 0.61000144 1.0694693e-38
0.77517128 0.28508925 0.6100015 1.0694693e-38
0.78489769 0.28500634 0.61000156 1.0694693e-38
0.79475927 0.28508872 0.61000162 1.0694693e-38
0.80474639 0.2851724 0.61000162 1.0694693e-38
0.81487381 0.28508916 0.61000168 1.0694693e-38
0.8251316 0.28534418 0.6100018 1.0694693e-38
0.83403832 0.28483433 0.61000186 1.0694693e-38
0.84456462 0.28508902 0.61000186 1.0694693e-38
0.85544842 0.28464493 0.61000198 1.0694693e-38
0.86449176 0.28482777 0.6100021 1.0694693e-38
0.55548346 0.29470724 0.61000001 1.0694693e-38
0.57587332 0.29516876 0.61082745 9.8663701e-39
0.58294439 0.29367363 0.61144865 9.3139152e-39
0.69314122 0.29212731 0.61391485 1.0694693e-38
0.70412827 0.29515368 0.61000091 1.0694693e-38
0.71403974 0.2949895 0.61000097 1.0694693e-38
0.72431511 0.29482406 0.61000103 1.0694693e-38
0.73468924 0.29489484 0.61000133 1.0694693e-38
0.74521548 0.29496661 0.61000133 1.0694693e-38
0.7545743 0.29487845 0.61000144 1.0694693e-38
0.76414138 0.29509485 0.61000144 1.0694693e-38
0.77517116 0.29492441 0.6100015 1.0694693e-38
0.78489769 0.29490626 0.61000156 1.0694693e-38
0.79475915 0.29505429 0.61000156 1.0694693e-38
0.80474627 0.29520443 0.61000162 1.0694693e-38
0.8147974 0.29493532 0.61000162 1.0694693e-38
0.82500112 0.29509354 0.61039376 1.0694693e-38
0.83403814 0.29506132 0.61000186 1.0694693e-38
0.84480333 0.29513109 0.61000186 1.0694693e-38
0.85522938 0.29468048 0.61000198 1.0694693e-38
0.8644914 0.29490992 0.61000216 1.0694693e-38
0.46546957 0.30389729 0.61301881 1.0694693e-38
0.49392098 0.30153501 0.6172145 1.0694693e-38
0.55636591 0.30519894 0.61000007 1.0694693e-38
0.56568944 0.3050679 0.61055845 1.0142238e-38
0.57450145 0.30443764 0.61101604 9.6823376e-39
0.68810105 0.30892277 0.61000091 1.0694693e-38
0.69515246 0.30584762 0.61000085 1.0694693e-38
0.70424742 0.30498573 0.61000091 1.0694693e-38
0.71433079 0.30512834 0.61000097 1.0694693e-38
0.7244373 0.3047964 0.61000109 1.0694693e-38
0.73481321 0.30493969 0.61000127 1.0694693e-38
0.74534136 0.30508509 0.61000133 1.0694693e-38
0.75474197 0.30489144 0.61000144 1.0694693e-38
0.76420647 0.30510131 0.61000144 1.0694693e-38
0.77510524 0.30500439 0.6100015 1.0694693e-38
0.78489774 0.30480614 0.61000156 1.0694693e-38
0.79475915 0.30501983 0.61000162 1.0694693e-38
0.80474627 0.30523646 0.61000162 1.0694693e-38
0.81487381 0.30478257 0.61000162 1.0694693e-38
0.8251316 0.30500051 0.61000174 1.0694693e-38
0.83403814 0.30528837 0.61000186 1.0694693e-38
0.84432542 0.30490863 0.61000186 1.0694693e-38
0.85522932 0.30504853 0.61000198 1.0694693e-38
0.86471283 0.30498311 0.6100021 1.0694693e-38
0.55636603 0.31525338 0.61000007 1.0694693e-38
0.56556731 0.31469679 0.61100811 9.6819789e-39
0.57209307 0.31255442 0.61000001 1.0694693e-38
0.67838633 0.31886631 0.61000085 1.0694693e-38
0.68520707 0.31605822 0.61000085 1.0694693e-38
0.6942482 0.3148382 0.61000085 1.0694693e-38
0.70418841 0.31504989 0.61000085 1.0694693e-38
0.71445221 0.31503338 0.61000091 1.0694693e-38
0.7245599 0.31477123 0.61000121 1.0694693e-38
0.73493767 0.31498712 0.61000127 1.0694693e-38
0.74540472 0.31496364 0.61000133 1.0694693e-38
0.75474185 0.31491396 0.61000144 1.0694693e-38
0.76420653 0.3148635 0.6100015 1.0694693e-38
0.77517122 0.31508607 0.6100015 1.0694693e-38
0.78489745 0.31503609 0.61000156 1.0694693e-38
0.79475927 0.31498539 0.61000156 1.0694693e-38
0.80474633 0.31526846 0.61000162 1.0694693e-38
0.8148737 0.31488204 0.61000168 1.0694693e-38
0.82513154 0.31516826 0.61000186 1.0694693e-38
0.83382463 0.31518182 0.61000192 1.0694693e-38
0.84456474 0.31495056 0.61000186 1.0694693e-38
0.85500997 0.31507847 0.61000198 1.0694693e-38
0.8644914 0.31507543 0.61000216 1.0694693e-38
0.55636597 0.32530776 0.61000007 1.0694693e-38
0.57157898 0.32642967 0.61000001 1.0694693e-38
0.67649651 0.32580122 0.61000073 1.0694693e-38
0.68450499 0.32501617 0.61000085 1.0694693e-38
0.69424754 0.32506439 0.61000085 1.0694693e-38
0.70412827 0.32511288 0.61000091 1.0694693e-38
0.71408951 0.32492575 0.61000091 1.0694693e-38
0.72449917 0.32498035 0.61000121 1.0694693e-38
0.73506254 0.32503712 0.61000127 1.0694693e-38
0.74546766 0.32484356 0.61000133 1.0694693e-38
0.75474209 0.32493636 0.61000144 1.0694693e-38
0.76427108 0.32487166 0.61000144 1.0694693e-38
0.77517116 0.32492119 0.6100015 1.0694693e-38
0.78491426 0.32539535 0.61002946 1.0694693e-38
0.79475921 0.32495093 0.61000162 1.0694693e-38
0.80474621 0.32530054 0.61000162 1.0694693e-38
0.81487387 0.32498148 0.61000168 1.0694693e-38
0.82504922 0.32490879 0.61011034 1.0694693e-38
0.83403802 0.32505932 0.6100018 1.0694693e-38
0.84448534 0.32498795 0.61000186 1.0694693e-38
0.85522944 0.32509211 0.61000198 1.0694693e-38
0.86426914 0.3251636 0.6100021 1.0694693e-38
0.43767494 0.33254269 0.61309659 1.0694693e-38
0.52047944 0.33474284 0.61942452 1.0694693e-38
0.55636603 0.33536217 0.61000007 1.0694693e-38
0.57480586 0.33592427 0.61000013 1.0694693e-38
0.58297241 0.33941928 0.61000013 1.0694693e-38
0.66690868 0.33699551 0.61000067 1.0694693e-38
0.67456549 0.33504173 0.61000067 1.0694693e-38
0.68444771 0.33493823 0.61000073 1.0694693e-38
0.69442433 0.33506504 0.61000079 1.0694693e-38
0.70424742 0.3349475 0.61000091 1.0694693e-38
0.71410072 0.33476317 0.61003441 1.0694693e-38
0.72443718 0.33518821 0.61000121 1.0694693e-38
0.73468924 0.33507076 0.61000127 1.0694693e-38
0.74559426 0.33496809 0.61000133 1.0694693e-38
0.75490993 0.33495507 0.61000144 1.0694693e-38
0.76420629 0.33487633 0.61000144 1.0694693e-38
0.77523679 0.33500472 0.6100015 1.0694693e-38
0.78489774 0.33516589 0.61000156 1.0694693e-38
0.79475921 0.33491653 0.61000156 1.0694693e-38
0.80474645 0.33499813 0.61000162 1.0694693e-38
0.81487381 0.33508092 0.61000168 1.0694693e-38
0.82513154 0.33482587 0.61000186 1.0694693e-38
0.83403826 0.33494535 0.61000192 1.0694693e-38
0.84456462 0.33502942 0.61000186 1.0694693e-38
0.85522974 0.33511454 0.61000204 1.0694693e-38
0.86449146 0.33489046 0.6100021 1.0694693e-38
0.50578272 0.34261653 0.61461622 1.0694693e-38
0.55636591 0.34541658 0.61000007 1.0694693e-38
0.57577866 0.34493324 0.61000019 1.0694693e-38
0.5847196 0.34564367 0.61000025 1.0694693e-38
0.59218431 0.3479422 0.61000019 1.0694693e-38
0.6593585 0.34740648 0.61000067 1.0694693e-38
0.66525358 0.34517252 0.61000067 1.0694693e-38
0.67484051 0.34490597 0.61000073 1.0694693e-38
0.68444687 0.34509262 0.61000073 1.0694693e-38
0.69402373 0.34504262 0.61000085 1.0694693e-38
0.70418841 0.3450104 0.61000085 1.0694693e-38
0.71433079 0.34473506 0.61000097 1.0694693e-38
0.7245599 0.34516567 0.61000121 1.0694693e-38
0.73481321 0.34511903 0.61000127 1.0694693e-38
0.74521559 0.34507257 0.61000133 1.0694693e-38
0.75474203 0.34498253 0.61000144 1.0694693e-38
0.76440096 0.34489119 0.61000144 1.0694693e-38
0.77517134 0.34508371 0.6100015 1.0694693e-38
0.78489769 0.34506577 0.61000156 1.0694693e-38
0.79475921 0.34488204 0.61000162 1.0694693e-38
0.80474639 0.34469578 0.61000162 1.0694693e-38
0.8148737 0.34518042 0.61000162 1.0694693e-38
0.8251316 0.34499359 0.61000174 1.0694693e-38
0.8340382 0.3448315 0.6100018 1.0694693e-38
0.84464467 0.34507245 0.61000186 1.0694693e-38
0.85544837 0.34478825 0.61000204 1.0694693e-38
0.86449128 0.34497261 0.61000216 1.0694693e-38
0.55636591 0.35547099 0.61000007 1.0694693e-38
0.56553268 0.35525271 0.61015266 1.0694693e-38
0.57570499 0.35480779 0.61000031 1.0694693e-38
0.58511484 0.35514966 0.61000025 1.0694693e-38
0.59449768 0.35505307 0.61000037 1.0694693e-38
0.60429502 0.35709465 0.61000025 1.0694693e-38
0.64773017 0.35900652 0.61000055 1.0694693e-38
0.65543193 0.35558438 0.61000061 1.0694693e-38
0.66519666 0.35495573 0.61000067 1.0694693e-38
0.67473155 0.35498446 0.61000067 1.0694693e-38
0.68444771 0.35524702 0.61000079 1.0694693e-38
0.69430649 0.3550483 0.61000079 1.0694693e-38
0.70412827 0.35507211 0.61000091 1.0694693e-38
0.71427107 0.35486972 0.61000091 1.0694693e-38
0.72449875 0.35489863 0.61000121 1.0694693e-38
0.73487568 0.35492751 0.61000127 1.0694693e-38
0.74534124 0.35519531 0.61000133 1.0694693e-38
0.75457424 0.35500643 0.61000144 1.0694693e-38
0.76401222 0.35512432 0.61000144 1.0694693e-38
0.77517128 0.3549189 0.6100015 1.0694693e-38
0.78489769 0.35496569 0.61000156 1.0694693e-38
0.79475915 0.35484761 0.61000162 1.0694693e-38
0.80474639 0.3547278 0.61000162 1.0694693e-38
0.81508195 0.35502151 0.61024666 1.0694693e-38
0.8251316 0.35516131 0.61000186 1.0694693e-38
0.83403802 0.35505852 0.61000186 1.0694693e-38
0.84456462 0.35510927 0.61000186 1.0694693e-38
0.85522938 0.35481533 0.61000198 1.0694693e-38
0.86471283 0.35505289 0.6100021 1.0694693e-38
0.47538859 0.36786115 0.61472261 1.0602497e-38
0.50583756 0.36549723 0.61265391 1.0694693e-38
0.55636603 0.36552539 0.61000007 1.0694693e-38
0.57570493 0.36501664 0.61000019 1.0694693e-38
0.58506924 0.36521673 0.61000037 1.0694693e-38
0.59457678 0.3649019 0.61000043 1.0694693e-38
0.60515451 0.36512369 0.61000049 1.0694693e-38
0.6144985 0.36600277 0.61000037 1.0694693e-38
0.62417507 0.36831328 0.61000049 1.0694693e-38
0.63585073 0.36886609 0.61000049 1.0694693e-38
0.64474404 0.36561155 0.61000055 1.0694693e-38
0.65477419 0.36489248 0.61000061 1.0694693e-38
0.66530478 0.36497539 0.61000067 1.0694693e-38
0.67484045 0.36507401 0.61000073 1.0694693e-38
0.68438923 0.36516705 0.61000079 1.0694693e-38
0.69424838 0.36503926 0.61000085 1.0694693e-38
0.70414805 0.36507216 0.61018157 1.0694693e-38
0.71420985 0.36500311 0.61000097 1.0694693e-38
0.72449917 0.36487138 0.61000127 1.0694693e-38
0.73493767 0.36473733 0.61000127 1.0694693e-38
0.74540478 0.36507612 0.61000133 1.0694693e-38
0.75474191 0.36502632 0.61000144 1.0694693e-38
0.76420653 0.36513913 0.6100015 1.0694693e-38
0.77517128 0.36475405 0.6100015 1.0694693e-38
0.7848978 0.36486563 0.61000156 1.0694693e-38
0.79475915 0.36481318 0.61000156 1.0694693e-38
0.80474633 0.36475983 0.61000162 1.0694693e-38
0.81487358 0.36487478 0.61000162 1.0694693e-38
0.8253423 0.36498973 0.61000186 1.0694693e-38
0.83425128 0.36494422 0.61000192 1.0694693e-38
0.84456402 0.36489147 0.61000186 1.0694693e-38
0.85501003 0.36483821 0.61000198 1.0694693e-38
0.8644914 0.36513811 0.61000216 1.0694693e-38
0.55616558 0.3748526 0.61000007 1.0694693e-38
0.57570517 0.37505549 0.61000001 1.0694693e-38
0.58506876 0.37507197 0.61000025 1.0694693e-38
0.59457713 0.37508887 0.61000043 1.0694693e-38
0.60538101 0.37504551 0.61000043 1.0694693e-38
0.61515629 0.37520134 0.61000055 1.0694693e-38
0.62514621 0.37507963 0.61000055 1.0694693e-38
0.63522047 0.37523803 0.61000055 1.0694693e-38
0.64428484 0.37517688 0.61000055 1.0694693e-38
0.65460497 0.37483808 0.61000061 1.0694693e-38
0.66519666 0.37498257 0.61000067 1.0694693e-38
0.67478395 0.37492535 0.61000067 1.0694693e-38
0.68450499 0.37486693 0.61000079 1.0694693e-38
0.69418901 0.37502906 0.61000085 1.0694693e-38
0.70418841 0.37497091 0.61000085 1.0694693e-38
0.71433085 0.37491164 0.61000097 1.0694693e-38
0.72443724 0.37507749 0.61000127 1.0694693e-38
0.7348761 0.37501857 0.61000133 1.0694693e-38
0.74546766 0.37495828 0.61000133 1.0694693e-38
0.75474185 0.37504882 0.61000144 1.0694693e-38
0.76414144 0.3751412 0.61000144 1.0694693e-38
0.77497429 0.37484583 0.6100015 1.0694693e-38
0.78489769 0.37476546 0.61000156 1.0694693e-38
0.79475915 0.37477872 0.61000162 1.0694693e-38
0.80474633 0.37479183 0.61000162 1.0694693e-38
0.8148737 0.37497425 0.61000168 1.0694693e-38
0.82513165 0.37482026 0.61000174 1.0694693e-38
0.83403802 0.37483209 0.6100018 1.0694693e-38
0.84456474 0.37467369 0.61000186 1.0694693e-38
0.85522938 0.37485889 0.61000192 1.0694693e-38
0.86426938 0.3752192 0.6100021 1.0694693e-38
0.51770914 0.38659668 0.61363977 1.0694693e-38
0.55536383 0.38534465 0.61000007 1.0694693e-38
0.57570499 0.38509417 0.61000019 1.0694693e-38
0.58506918 0.38492715 0.61000031 1.0694693e-38
0.59450054 0.38493362 0.61000043 1.0694693e-38
0.60530412 0.38497293 0.61000043 1.0694693e-38
0.61510807 0.38506421 0.61000043 1.0694693e-38
0.625067 0.38515702 0.61000055 1.0694693e-38
0.63511705 0.38502431 0.61000055 1.0694693e-38
0.64428562 0.38503715 0.61000055 1.0694693e-38
0.65477419 0.38476676 0.61000061 1.0694693e-38
0.66530484 0.38500392 0.61000067 1.0694693e-38
0.67478311 0.38500899 0.61000067 1.0694693e-38
0.68444771 0.38478705 0.61000085 1.0694693e-38
0.69430661 0.38479832 0.61000079 1.0694693e-38
0.70412827 0.38503137 0.61000091 1.0694693e-38
0.71427101 0.38504502 0.61000097 1.0694693e-38
0.72440434 0.38515446 0.61018223 1.0694693e-38
0.73481321 0.3852984 0.61000127 1.0694693e-38
0.7454046 0.3848325 0.61000133 1.0694693e-38
0.75474203 0.38507125 0.61000144 1.0694693e-38
0.76420653 0.38515109 0.6100015 1.0694693e-38
0.77536881 0.38515127 0.6100015 1.0694693e-38
0.7850728 0.38499743 0.61000156 1.0694693e-38
0.79475927 0.38474429 0.61000156 1.0694693e-38
0.80474633 0.38482386 0.61000162 1.0694693e-38
0.8148737 0.38507372 0.61000168 1.0694693e-38
0.82513165 0.38498795 0.6100018 1.0694693e-38
0.83403796 0.38505909 0.61000186 1.0694693e-38
0.84456474 0.38497078 0.61000186 1.0694693e-38
0.85522968 0.38488135 0.61000198 1.0694693e-38
0.86449146 0.38495323 0.61000204 1.0694693e-38
0.41145745 0.3924723 0.61210728 1.0694693e-38
0.5755623 0.39513767 0.61000013 1.0694693e-38
0.5850237 0.3949925 0.61000025 1.0694693e-38
0.59457666 0.39494422 0.61000043 1.0694693e-38
0.60522652 0.39489844 0.61000043 1.0694693e-38
