# .PCD v0.7 - Point Cloud Data file format
VERSION 0.7
FIELDS x y z rgb
SIZE 4 4 4 4
TYPE F F F F
COUNT 1 1 1 1
WIDTH 1005
HEIGHT 1
VIEWPOINT 0 0 0 1 0 0 0
POINTS 1005
DATA ascii
0.5852536 -0.2346507 0.6749357 5.8914988e-39
0.57710594 -0.22426468 0.67468667 5.9836944e-39
0.58135891 -0.22924019 0.67680633 5.983693e-39
0.56681204 -0.21236324 0.67442924 5.9840545e-39
0.57199895 -0.21775411 0.67603111 6.3531986e-39
0.55785072 -0.2024243 0.67564988 1.1708485e-38
0.5624063 -0.20758891 0.67460716 7.8312139e-39
0.54893333 -0.19205336 0.67523867 2.8599577e-39
0.55276501 -0.19685565 0.67534816 8.4827518e-39
0.54585606 -0.18513638 0.67491877 2.8599577e-39
0.53984934 -0.17051578 0.67626619 2.8599577e-39
0.54197848 -0.17570418 0.67505723 2.8599577e-39
0.53846753 -0.16553292 0.67501104 2.8599577e-39
0.54123288 -0.16097555 0.6741482 2.8599577e-39
0.54633343 -0.15764643 0.67554325 2.8599577e-39
0.55489296 -0.15320113 0.67501479 2.8599577e-39
0.5624997 -0.15098287 0.67628276 3.0439874e-39
0.5653646 -0.14880133 0.67768377 2.9517932e-39
0.57724512 -0.14982583 0.67035007 1.3183975e-38
0.44704059 -0.07208249 0.6737377 6.8250116e-39
0.45216802 -0.074413754 0.67587709 7.5629367e-39
0.43684649 -0.063274123 0.6750198 5.9930761e-39
0.44149217 -0.068837456 0.67526895 6.36186e-39
0.70792675 -0.063111134 0.67357117 6.7958267e-39
0.71230245 -0.067021087 0.67524183 8.0995303e-39
0.4342303 -0.05416682 0.67466992 7.2841778e-39
0.6980865 -0.05226583 0.6738559 6.4284847e-39
0.70301521 -0.057718899 0.67416328 6.5203202e-39
0.43699047 -0.045749571 0.67476434 7.1952388e-39
0.44135764 -0.04118007 0.67549109 6.4584011e-39
0.68979532 -0.040874518 0.67632371 8.7243721e-39
0.69305068 -0.045427348 0.67484975 8.5407011e-39
0.44658822 -0.037455786 0.67494386 6.0885381e-39
0.45393425 -0.03252143 0.67401326 2.6751727e-39
0.68583155 -0.035166852 0.67502141 8.7243721e-39
0.4584786 -0.029096516 0.67651653 2.8581234e-39
0.46524054 -0.024279801 0.67496073 4.3368436e-39
0.47285604 -0.020310672 0.67447841 6.458764e-39
0.67766547 -0.023491414 0.67520398 8.7243721e-39
0.68133563 -0.028759966 0.67583066 8.7243721e-39
0.66915572 -0.011293859 0.67463964 8.7243721e-39
0.67276073 -0.016500173 0.67515206 8.7243721e-39
0.66485214 -0.0049716923 0.67472506 8.7243721e-39
0.6572386 0.0062618153 0.67509902 8.7243721e-39
0.66072959 0.0011778241 0.67409205 8.7243721e-39
0.64854676 0.018562766 0.67472076 8.7243721e-39
0.65225428 0.013506955 0.67499793 8.7243721e-39
0.64408082 0.025132911 0.67538196 8.7243721e-39
0.63917565 0.036477044 0.67722261 9.4601365e-39
0.64139271 0.036187802 0.67359179 9.1835496e-39
0.46235991 0.049226336 0.67360461 4.3331946e-39
0.63944274 0.043061648 0.67340487 9.3675807e-39
0.64287221 0.04521871 0.67710346 9.8263981e-39
0.45188013 0.054787785 0.67552173 7.3806124e-39
0.6478954 0.050972108 0.67512655 8.8162076e-39
0.65603888 0.056550991 0.67539787 8.7247323e-39
0.45688552 0.06261795 0.67610687 8.3064685e-39
0.46277496 0.067911811 0.6752398 8.3064685e-39
0.66586947 0.06378866 0.67490494 8.7243721e-39
0.67398059 0.068457983 0.67384511 8.7243721e-39
0.46777186 0.071509816 0.67440635 8.3064685e-39
0.47429505 0.075647227 0.67491287 8.3064685e-39
0.48026422 0.079572566 0.67371702 8.3064685e-39
0.67813474 0.070427075 0.67197275 8.7243721e-39
0.68282908 0.071780674 0.67431825 8.7243721e-39
0.48527318 0.082894243 0.67527014 8.3064699e-39
0.49265307 0.087703742 0.67492336 9.8695385e-39
0.49826416 0.091425315 0.67520553 8.9500639e-39
0.504475 0.095463656 0.67495877 8.3064699e-39
0.51081336 0.09950453 0.67478049 8.3983068e-39
0.51593494 0.10268167 0.67569536 9.1341034e-39
0.52421212 0.10736413 0.67520297 8.6741874e-39
0.52957475 0.1102251 0.67334092 8.3064685e-39
0.53547269 0.11346587 0.67536652 8.3064685e-39
0.54191291 0.11689492 0.67393202 8.3064685e-39
0.60693014 0.13539779 0.67465782 6.1529923e-39
0.60589385 0.14508535 0.67481738 1.0134681e-38
0.60702974 0.15162368 0.67436361 1.1801041e-38
0.61213028 0.15522446 0.67546552 1.1801041e-38
0.44437522 0.19607009 0.67504066 1.179835e-38
0.45296109 0.19222453 0.67424423 1.3089445e-38
0.43705353 0.20556174 0.67541873 1.1614322e-38
0.44035426 0.20055157 0.67401642 1.179835e-38
0.42887869 0.21800771 0.6757313 7.7450943e-39
0.43210158 0.21319692 0.67511463 6.9153603e-39
0.42660415 0.22508852 0.67497069 7.6543392e-39
0.42693859 0.23214948 0.67499602 8.2968262e-39
0.4328821 0.23759893 0.67353201 6.3614901e-39
0.43863177 0.24198252 0.67419982 7.0986781e-39
0.44219741 0.24456692 0.67454845 8.4808517e-39
0.44671702 -0.39409974 0.68625671 6.2448278e-39
0.4390555 -0.38092491 0.68723357 7.1674931e-39
0.44235069 -0.38632873 0.68475258 6.7072366e-39
0.43583271 -0.37481016 0.68477124 8.9184744e-39
0.42841825 -0.36143604 0.68506289 1.0852416e-38
0.43128505 -0.36662978 0.68449944 1.0482197e-38
0.41943306 -0.35835627 0.68769312 1.002266e-38
0.42515668 -0.35529017 0.68487996 1.0946048e-38
0.41867256 -0.34301829 0.68569005 1.1137614e-38
0.4217155 -0.34868264 0.68446445 1.1135823e-38
0.41422608 -0.33439848 0.68465197 1.0860663e-38
0.40815148 -0.32311895 0.68609345 7.9032561e-39
0.41101965 -0.32829878 0.68429464 9.3798071e-39
0.4038125 -0.31484371 0.68449235 6.7058017e-39
0.39945638 -0.3025175 0.68359762 6.1529923e-39
0.40051073 -0.30591863 0.68590623 5.6019779e-39
0.63667655 -0.30067185 0.68162817 3.1365516e-39
0.64089322 -0.3033573 0.68197942 2.3064098e-39
0.39834818 -0.29469296 0.68464178 6.2448278e-39
0.6267221 -0.29246649 0.68527931 2.8599591e-39
0.63281578 -0.29699415 0.68332756 3.0443531e-39
0.39874279 -0.28833622 0.68817192 6.2448278e-39
0.4051986 -0.28412268 0.6851235 7.0749373e-39
0.41069975 -0.28058118 0.68512475 6.5232181e-39
0.61984086 -0.28075701 0.68430436 2.8599577e-39
0.62275708 -0.28584638 0.68544781 2.8599577e-39
0.41569492 -0.27792919 0.68560535 8.0041033e-39
0.42470565 -0.27395377 0.68565446 7.9119077e-39
0.43327209 -0.2711136 0.6848979 6.8005239e-39
0.61691338 -0.27506161 0.68548095 6.2704393e-39
0.43813068 -0.26938897 0.6853255 7.1729091e-39
0.44397575 -0.26766211 0.68540871 6.7083268e-39
0.60806686 -0.26215616 0.68623179 1.1708845e-38
0.61194748 -0.26718554 0.68458974 1.1708845e-38
0.59920973 -0.25114068 0.68441027 1.1155308e-38
0.60315573 -0.25605255 0.68479049 1.1708845e-38
0.59444618 -0.24505806 0.68504286 1.0139713e-38
0.58675534 -0.23501885 0.68500239 8.5702209e-39
0.57774997 -0.2231416 0.68470728 8.2932739e-39
0.58179343 -0.22834615 0.68555152 8.8471707e-39
0.56815547 -0.2116631 0.68400133 9.9549616e-39
0.57270634 -0.21657859 0.68530881 1.0139354e-38
0.5588786 -0.20148121 0.68523282 1.1708845e-38
0.56337756 -0.20636021 0.68497646 1.1339701e-38
0.54966331 -0.19113111 0.68256778 2.8599577e-39
0.55332208 -0.19536501 0.68532896 7.1001915e-39
0.54618216 -0.18506387 0.68617451 2.8599577e-39
0.53901404 -0.17288682 0.68667716 2.8599605e-39
0.54134852 -0.17677476 0.6879999 2.8599605e-39
0.53807962 -0.16526125 0.68555605 2.8599577e-39
0.54235518 -0.16156538 0.68484592 4.150321e-39
0.54526919 -0.15755928 0.68606073 2.8599577e-39
0.55500776 -0.15250997 0.68436176 2.8599577e-39
0.55965221 -0.14969103 0.68877614 2.8599577e-39
0.56554413 -0.14864033 0.68511957 2.8599577e-39
0.57391781 -0.1470103 0.68478125 2.9521519e-39
0.44588524 -0.07139428 0.68402702 6.1792764e-39
0.4535284 -0.074476533 0.68099189 7.7491357e-39
0.43756312 -0.06369932 0.68479681 6.9146722e-39
0.44136029 -0.067478806 0.68603313 6.2696672e-39
0.70636672 -0.063437141 0.68613452 9.0218454e-39
0.71188998 -0.067979783 0.68427253 9.3999914e-39
0.43417811 -0.055227559 0.68518549 7.1927053e-39
0.69846791 -0.053297326 0.68516588 8.918487e-39
0.70238209 -0.058058169 0.6857056 7.7267864e-39
0.43748054 -0.046451598 0.68486297 6.6427909e-39
0.44145471 -0.041342001 0.68534642 7.1956018e-39
0.6892699 -0.040490389 0.68448418 9.2840269e-39
0.69307864 -0.045939934 0.68511528 9.3776645e-39
0.44645891 -0.037616517 0.68485641 7.195243e-39
0.4532907 -0.03281584 0.68461734 3.9633779e-39
0.68543172 -0.035039291 0.68467009 9.2843885e-39
0.45866069 -0.028933857 0.68525559 2.6737363e-39
0.46484441 -0.024779275 0.68504429 5.0726023e-39
0.47171584 -0.020963566 0.68446684 8.0242792e-39
0.67728955 -0.023461321 0.68505019 5.9751128e-39
0.68105555 -0.028841972 0.68489307 7.0782052e-39
0.47574869 -0.019021928 0.68621463 8.2086691e-39
0.66866052 -0.011053077 0.68425065 6.250255e-39
0.67241788 -0.015979962 0.68550187 5.8836389e-39
0.68305415 -0.015752686 0.68504423 4.0512814e-39
0.6644572 -0.0050097457 0.68513298 5.4255488e-39
0.65738928 0.0056817108 0.68484545 1.0029516e-38
0.66081899 0.00046492089 0.68416941 7.2643971e-39
0.64826751 0.018636644 0.68534195 1.0217866e-38
0.65219182 0.013444204 0.68468773 1.0030597e-38
0.64366937 0.025392151 0.68521762 1.0402979e-38
0.63882267 0.03396352 0.68536711 1.0683167e-38
0.64130396 0.036707576 0.68488616 1.076996e-38
0.45636171 0.048711553 0.6896019 5.8083247e-39
0.64590734 0.045466743 0.68414706 1.0580169e-38
0.44992739 0.051630288 0.68147588 5.8083247e-39
0.45250332 0.054075789 0.6852476 6.9185707e-39
0.64929748 0.050629348 0.68280053 9.8375622e-39
0.65478712 0.055170428 0.68535453 9.1140424e-39
0.45761019 0.062063504 0.68477535 8.3064685e-39
0.46303153 0.067237422 0.68441695 8.3064685e-39
0.66569901 0.06347537 0.68525159 9.0236474e-39
0.67355299 0.068895869 0.68582636 1.0591693e-38
0.46860957 0.071777694 0.68400544 8.3064685e-39
0.47558564 0.076431647 0.68463671 8.3064685e-39
0.67678064 0.071547434 0.68864286 1.1615568e-38
0.4855572 0.083043002 0.6847567 8.674186e-39
0.49269637 0.087896295 0.68526846 9.8695385e-39
0.49750662 0.091086708 0.68512017 8.3983082e-39
0.50496256 0.095809191 0.68526167 8.3064685e-39
0.5100199 0.0989739 0.68240082 8.3983054e-39
0.51546788 0.10238425 0.68506706 8.4901479e-39
0.52410924 0.10745192 0.6851303 8.3064685e-39
0.53449762 0.11314465 0.68574667 8.3064685e-39
0.54313457 0.11724795 0.68537807 1.0151792e-38
0.60710657 0.13568899 0.68497288 6.2451879e-39
0.60548431 0.14493981 0.68534756 1.0782568e-38
0.60732764 0.15215115 0.68414479 1.1801041e-38
0.61287439 0.15536177 0.686041 1.1801041e-38
0.45461917 0.18992096 0.68973613 1.1799086e-38
0.44514579 0.19566324 0.68512172 1.2167127e-38
0.45269266 0.19055183 0.68680191 1.1338471e-38
0.43743727 0.20557515 0.68514383 1.179835e-38
0.44051018 0.20076425 0.68458861 1.179835e-38
0.42898688 0.21818592 0.68432635 4.9021722e-39
0.4324179 0.21306044 0.68463248 8.2121499e-39
0.42626321 0.22424008 0.68481672 7.3820613e-39
0.42817751 0.23244384 0.6844458 7.0064937e-39
0.43258053 0.23780462 0.68538785 6.3611271e-39
0.43696427 0.24113744 0.68934262 5.9001476e-39
0.44692707 -0.395026 0.69410658 6.3370234e-39
0.45012462 -0.3995738 0.69679308 6.2448292e-39
0.43912491 -0.38297963 0.69520646 8.2741868e-39
0.44208449 -0.38748455 0.69561994 7.4462296e-39
0.43565458 -0.37607154 0.6949535 9.8371909e-39
0.42835155 -0.36319962 0.69567817 1.0852056e-38
0.43137532 -0.36842367 0.69459277 1.0482197e-38
0.42387676 -0.35470536 0.69466072 1.1039679e-38
0.41814297 -0.34370899 0.69583356 1.1137613e-38
0.42019293 -0.34800974 0.69759142 1.113726e-38
0.41396075 -0.33532542 0.69451421 1.0674479e-38
0.40763915 -0.32317704 0.69486845 8.6404554e-39
0.4116044 -0.32874599 0.69488537 9.3790896e-39
0.40342611 -0.31493908 0.69418818 6.7983561e-39
0.39918917 -0.30376422 0.69507068 6.2448278e-39
0.40027547 -0.30771846 0.69425452 6.1529923e-39
0.39855388 -0.29503709 0.69384831 6.2448278e-39
0.40845445 -0.29250565 0.69379568 6.1529923e-39
0.62766796 -0.29213065 0.69479209 2.8599577e-39
0.63262546 -0.29732016 0.69618231 2.7677621e-39
0.39863995 -0.28834704 0.69511038 6.2448278e-39
0.40467545 -0.28427929 0.695306 7.2596873e-39
0.41094351 -0.28052011 0.6946106 7.7264388e-39
0.6235835 -0.28504404 0.69509089 2.8599577e-39
0.41552606 -0.2779687 0.69495744 7.7267948e-39
0.42430511 -0.27312875 0.69561386 8.7449068e-39
0.4329851 -0.27073807 0.69238889 1.041271e-38
0.44879091 -0.27027702 0.69888729 9.183572e-39
0.45028394 -0.272053 0.69910896 9.183572e-39
0.61750031 -0.27480307 0.69443458 4.1503224e-39
0.62054396 -0.27965969 0.69727665 2.8599577e-39
0.4363935 -0.26931128 0.69549012 8.1902953e-39
0.44370636 -0.2680338 0.69467348 6.5217762e-39
0.60888118 -0.26180992 0.6953091 1.1801041e-38
0.61253005 -0.26680562 0.69520307 1.1708845e-38
0.60361731 -0.25506625 0.6950081 1.1801041e-38
0.59573758 -0.24487984 0.69530636 1.1801041e-38
0.58715272 -0.23395112 0.69472486 1.1801041e-38
0.59117305 -0.23904422 0.6952244 1.1801041e-38
0.57825166 -0.22260195 0.6945473 1.1708845e-38
0.58199555 -0.22728172 0.69525158 1.1708845e-38
0.5690878 -0.2108974 0.69516587 1.1155677e-38
0.57324499 -0.21617399 0.69523174 1.1708845e-38
0.56413025 -0.20505947 0.69491005 1.0325926e-38
0.55495954 -0.1948694 0.69483596 4.242518e-39
0.5473851 -0.18456279 0.69495195 2.8599605e-39
0.55068105 -0.18951291 0.69642085 2.8599577e-39
0.53984058 -0.17090121 0.69411588 2.9521561e-39
0.5428459 -0.17590065 0.69325936 2.9521575e-39
0.53906429 -0.16550033 0.6943568 2.8599591e-39
0.54109919 -0.1630244 0.6940158 2.8599591e-39
0.54597688 -0.1568924 0.69441742 2.8606765e-39
0.55347002 -0.15171337 0.69474453 2.8599577e-39
0.55906171 -0.14989416 0.69829828 2.8599577e-39
0.56510365 -0.14823298 0.69524741 2.8599577e-39
0.57448745 -0.14580488 0.69532192 2.8599577e-39
0.44780898 -0.071958102 0.69502819 7.7480511e-39
0.45227259 -0.073944904 0.69651043 7.7491399e-39
0.43777829 -0.062641032 0.6947583 7.8369887e-39
0.44218531 -0.068047635 0.69519907 8.2061327e-39
0.70771247 -0.062102124 0.69403833 1.2814469e-38
0.7135092 -0.066130392 0.69603127 1.2262375e-38
0.43475884 -0.055019766 0.69474053 7.5614864e-39
0.69796509 -0.052023601 0.69544494 1.2445687e-38
0.70300514 -0.056840625 0.69558007 1.281267e-38
0.72055578 -0.055034645 0.69838727 7.4386752e-39
0.43778625 -0.046572536 0.69520473 5.9963383e-39
0.44131982 -0.041754849 0.6952948 6.0896185e-39
0.68913108 -0.040090617 0.69341487 1.1616644e-38
0.69329208 -0.04545835 0.69542199 1.2169459e-38
0.44623715 -0.038025115 0.69507772 6.0896185e-39
0.45392203 -0.032643866 0.69525874 5.443896e-39
0.68580192 -0.034682509 0.69547319 1.2353853e-38
0.69029319 -0.038998254 0.69968879 1.4473985e-38
0.45906734 -0.029115904 0.69571835 5.6279243e-39
0.46457544 -0.025243616 0.69509417 5.7204801e-39
0.47106731 -0.020912927 0.69667387 6.089257e-39
0.67760497 -0.023323176 0.69480377 2.8595989e-39
0.68166679 -0.028139468 0.69680971 6.2708106e-39
0.47556338 -0.019297892 0.69415283 6.6427923e-39
0.66948187 -0.012289289 0.69328058 2.8599591e-39
0.67305279 -0.015697969 0.69626826 2.8599591e-39
0.68520856 -0.018464506 0.69400388 3.3209512e-39
0.6657716 -0.0053949505 0.69557565 3.1361872e-39
0.65783131 0.0066060601 0.69483137 1.0879083e-38
0.66145116 0.0017818423 0.69643039 9.0355571e-39
0.6491037 0.018890357 0.69347948 1.0878721e-38
0.65292132 0.014292169 0.69576925 1.05103e-38
0.6456185 0.025297849 0.69503438 1.0233714e-38
0.65002751 0.022532264 0.69269931 1.0227951e-38
0.63908535 0.036903441 0.6931383 1.1247865e-38
0.64150673 0.034237161 0.69648677 9.8649324e-39
0.4545567 0.049256444 0.69500494 6.1771072e-39
0.64529818 0.04533327 0.6956839 1.1524089e-38
0.65069145 0.049904272 0.69880611 1.0325908e-38
0.44999796 0.052732624 0.69441634 5.9930691e-39
0.45187271 0.055170875 0.69572788 7.6579083e-39
0.64939535 0.0508474 0.69274914 1.0233714e-38
0.65538871 0.054859929 0.69555235 9.0351717e-39
0.66137302 0.058704853 0.69734377 8.9429761e-39
0.45668915 0.062743388 0.69468737 8.3061098e-39
0.46217117 0.067801751 0.69506025 8.3064685e-39
0.66595685 0.062666446 0.69468409 9.3117586e-39
0.67487282 0.067311555 0.69520998 1.2354213e-38
0.68282354 0.069732644 0.69736594 1.3368003e-38
0.46741641 0.071386553 0.6945045 8.3064685e-39
0.47460502 0.076133199 0.69502378 8.3064685e-39
0.48031968 0.079932503 0.69695365 8.3064685e-39
0.67814028 0.071516223 0.69098538 1.3736786e-38
0.68478853 0.071613774 0.69536191 1.3736786e-38
0.48492157 0.082882412 0.69446093 8.3064699e-39
0.49319211 0.088167265 0.69550842 8.3064699e-39
0.49807355 0.091458298 0.6941759 8.3064685e-39
0.5046289 0.095639385 0.69488931 8.3064685e-39
0.51206952 0.097865805 0.696109 8.3064685e-39
0.51603943 0.10265238 0.69474053 8.3064685e-39
0.52480298 0.10767711 0.69490331 8.4901381e-39
0.63553387 0.10643937 0.69793695 1.2354936e-38
0.52960271 0.1103301 0.69379431 8.4901381e-39
0.53462821 0.11288514 0.69368237 9.3202463e-39
0.5411225 0.1145071 0.69119108 1.1997835e-38
0.60758471 0.13490765 0.69494754 1.078221e-38
0.60582602 0.14466767 0.69546205 1.1708486e-38
0.60707861 0.15170942 0.6963641 1.1801041e-38
0.61287093 0.15557604 0.69705451 1.1801041e-38
0.45420933 0.18973303 0.69553387 1.1890911e-38
0.44420183 0.19607368 0.69492358 1.179835e-38
0.45249894 0.19121361 0.69269574 1.1890544e-38
0.43682501 0.20545547 0.69528252 1.179835e-38
0.44050479 0.20098251 0.6914202 1.2259321e-38
0.42817637 0.21757796 0.69541174 4.9021722e-39
0.43164575 0.21289124 0.69447392 9.2237613e-39
0.42536342 0.22472505 0.69522607 8.8535578e-39
0.42865276 0.23361132 0.69423151 6.3611103e-39
0.43295074 0.23802869 0.69538742 5.2551467e-39
0.43850237 0.24209982 0.693358 6.2689203e-39
0.44069952 0.24315283 0.69758368 7.0986655e-39
0.44481954 -0.39302352 0.70511675 6.9827445e-39
0.43820232 -0.38191938 0.70541418 1.0028045e-38
0.44144464 -0.38740009 0.70535433 8.5525687e-39
0.4338997 -0.37425825 0.70466316 9.8404223e-39
0.42798588 -0.36369061 0.70439941 1.0852416e-38
0.43053728 -0.36799407 0.70697057 9.4694916e-39
0.42322901 -0.35488454 0.70544696 1.1040756e-38
0.41766453 -0.34419236 0.70571673 1.1138329e-38
0.42058441 -0.34940982 0.70212275 1.113726e-38
0.41306561 -0.3351855 0.70468491 1.0862818e-38
0.40764463 -0.32472572 0.70552045 9.8501221e-39
0.40236706 -0.31435928 0.70508909 6.8001539e-39
0.39836922 -0.30492076 0.70573878 6.2448278e-39
0.63706005 -0.30085889 0.70243406 2.8599577e-39
0.39683941 -0.292853 0.70565093 6.2448278e-39
0.62846935 -0.29138055 0.70373535 2.8599577e-39
0.63325673 -0.29626456 0.70496374 2.8599577e-39
0.39908779 -0.28954011 0.70134491 6.2448278e-39
0.40501022 -0.28542823 0.70503944 6.9827417e-39
0.41093898 -0.28059921 0.70492876 6.2451879e-39
0.62440664 -0.28510615 0.70528156 2.8606751e-39
0.41600624 -0.27766147 0.70464599 7.8200736e-39
0.42508611 -0.27261028 0.70495808 7.4487687e-39
0.61760408 -0.27394351 0.70489085 3.5060389e-39
0.62063277 -0.27901596 0.70456827 2.8606765e-39
0.43345395 -0.26816767 0.70608425 6.2448278e-39
0.44227949 -0.26728922 0.70440644 7.5308876e-39
0.60948396 -0.26086137 0.70363045 1.1801041e-38
0.61274803 -0.265775 0.70538193 1.0604665e-38
0.60523039 -0.25491208 0.70513386 1.0973445e-38
0.59665686 -0.24376443 0.70500571 1.106528e-38
0.60052919 -0.24899317 0.70406067 1.143334e-38
0.58801383 -0.23335718 0.70493251 1.069722e-38
0.59221381 -0.23808756 0.70512694 1.124931e-38
0.57830167 -0.22128387 0.70399171 1.1525175e-38
0.58254212 -0.22623913 0.70517725 1.1341146e-38
0.56973302 -0.21065676 0.70368648 3.5053201e-39
0.5738976 -0.21554121 0.70546955 9.0366375e-39
0.56551558 -0.20504098 0.70525545 3.3216491e-39
0.55650264 -0.1941026 0.70459378 2.8599577e-39
0.56089884 -0.19913888 0.70590687 2.8603164e-39
0.548154 -0.18268594 0.70407158 2.8599577e-39
0.55190372 -0.18693174 0.70618761 2.8599577e-39
0.53938353 -0.17111376 0.70221412 2.9517946e-39
0.54389668 -0.17530099 0.70567709 2.8599577e-39
0.53951186 -0.16738954 0.70254242 2.8599577e-39
0.54081267 -0.16388839 0.7057299 2.8599577e-39
0.54459482 -0.15612753 0.70537674 2.8599577e-39
0.55518538 -0.15142889 0.70496851 2.8599577e-39
0.56532323 -0.14854923 0.70415658 2.8599577e-39
0.57479835 -0.1459913 0.7044583 2.8599577e-39
0.58053529 -0.1452183 0.70909482 2.8599577e-39
0.44949973 -0.070999339 0.70161206 6.8253717e-39
0.45432678 -0.07169126 0.70354205 5.7103445e-39
0.43863639 -0.062182963 0.70245826 5.8998e-39
0.44460264 -0.065423243 0.70614421 5.2475615e-39
0.45474374 -0.06842377 0.70803916 5.796757e-39
0.46402335 -0.063814685 0.70874518 6.4406816e-39
0.47260937 -0.061928347 0.7045089 6.1655395e-39
0.70932949 -0.062878154 0.70082891 1.0313306e-38
0.7148301 -0.06225504 0.70311004 1.235421e-38
0.72200507 -0.06135245 0.70392579 1.79767e-38
0.43725452 -0.054347485 0.70421684 5.065338e-39
0.44147217 -0.055848714 0.70862341 4.7847728e-39
0.47511247 -0.057741761 0.7083683 6.1648164e-39
0.48362082 -0.052287437 0.70851731 6.4410404e-39
0.69950372 -0.051677797 0.70036244 1.4290321e-38
0.70559806 -0.054164976 0.70357972 1.4382514e-38
0.71475291 -0.054756295 0.70693958 1.7424971e-38
0.72473544 -0.053879455 0.70650047 1.576509e-38
0.73140633 -0.051353231 0.70648551 1.5581061e-38
0.43830279 -0.047031127 0.70391595 4.1422971e-39
0.44373822 -0.043664355 0.70676208 4.6014676e-39
0.4542017 -0.04240641 0.70927727 5.0609982e-39
0.48966318 -0.049184225 0.70612067 6.7169056e-39
0.49186575 -0.044479325 0.70736158 6.7169056e-39
0.6968857 -0.04462922 0.7019788 1.4474711e-38
0.70535809 -0.044763777 0.70445496 1.8530956e-38
0.71542096 -0.045210678 0.70573944 1.5673257e-38
0.72512865 -0.045049343 0.70610607 1.4935692e-38
0.73476344 -0.044250939 0.70641261 1.5673256e-38
0.74424303 -0.042877074 0.70466059 1.7332415e-38
0.75378186 -0.041867133 0.70172989 1.8807547e-38
0.44796607 -0.038599852 0.70400447 4.41997e-39
0.45508435 -0.03491189 0.70566767 4.5107181e-39
0.46239442 -0.031575873 0.70827246 4.6925786e-39
0.49170828 -0.036655165 0.7094484 6.6250701e-39
0.68841636 -0.032746885 0.70157975 1.2907392e-38
0.69472808 -0.035408143 0.7033304 1.7056189e-38
0.70524853 -0.035303354 0.70499003 1.6871439e-38
0.71575648 -0.034627087 0.70541602 1.4935692e-38
0.72532183 -0.035007216 0.70609814 1.5027888e-38
0.73536831 -0.035231281 0.70630032 1.7793395e-38
0.74539042 -0.034639247 0.70657551 1.889974e-38
0.75402123 -0.034458701 0.70480758 1.8069616e-38
0.46613762 -0.026557907 0.70504284 4.4192455e-39
0.47451392 -0.023202615 0.70623261 4.9698872e-39
0.48352751 -0.024072362 0.70740211 5.5219777e-39
0.67873049 -0.020865554 0.70072836 3.3209512e-39
0.68519241 -0.02421624 0.70298588 7.2849934e-39
0.69492722 -0.025270745 0.70522875 1.6501949e-38
0.70536995 -0.025397835 0.7056706 1.539667e-38
0.71563786 -0.024886498 0.7055307 1.5120083e-38
0.72562772 -0.025229329 0.70580852 1.6779602e-38
0.73535752 -0.024655096 0.70646971 1.9084491e-38
0.74472439 -0.025593752 0.70698506 1.889974e-38
0.75180131 -0.027344098 0.7064243 1.9084132e-38
0.47706458 -0.019551631 0.70046967 5.6224901e-39
0.67669904 -0.014190483 0.70259368 3.8748621e-39
0.68483895 -0.015232045 0.70528352 4.5202539e-39
0.69473785 -0.014550876 0.70632559 6.2715996e-39
0.70487088 -0.01483833 0.70615846 1.2723758e-38
0.71525377 -0.015135373 0.70590085 1.5857648e-38
0.72532225 -0.015411998 0.70609784 1.9176328e-38
0.73426139 -0.01503904 0.70708561 1.9360719e-38
0.74408811 -0.015688963 0.70408362 1.7332051e-38
0.66834694 -0.0028191363 0.70129818 3.8744992e-39
0.67443168 -0.0057567395 0.70442384 4.0588988e-39
0.68450183 -0.0054363227 0.70659357 4.8890477e-39
0.6944648 -0.0048939176 0.70663208 5.2574644e-39
0.70466799 -0.0051818229 0.70635617 5.3500188e-39
0.714845 -0.0045096516 0.70629424 1.0972806e-38
0.72470409 -0.0046993159 0.70668441 1.8900113e-38
0.73356742 -0.0054176273 0.70642501 1.7701579e-38
0.74055839 -0.004184261 0.7028383 1.4751706e-38
0.6593129 0.0092482567 0.70075434 1.097128e-38
0.66562396 0.0052762185 0.70351636 9.2206896e-39
0.67504519 0.004686553 0.70630193 4.7050095e-39
0.68478847 0.0047297995 0.70646501 4.889405e-39
0.69462389 0.0045980848 0.70643902 4.8890477e-39
0.70465928 0.0044635325 0.70636445 4.8894064e-39
0.7148214 0.005211364 0.70631677 4.8890449e-39
0.72448891 0.0047937753 0.70648009 8.2076952e-39
0.73184723 0.0037888961 0.70525187 1.0051229e-38
0.6564461 0.016103707 0.70286614 1.3459121e-38
0.66475666 0.014781322 0.70512402 1.6503388e-38
0.67486304 0.015386012 0.70586061 9.3136448e-39
0.6851061 0.015088758 0.70614511 4.8894036e-39
0.69470078 0.015038624 0.70636249 4.8890449e-39
0.70462233 0.014985648 0.70640039 4.8894064e-39
0.71487975 0.014930475 0.70626092 4.8890477e-39
0.72303367 0.013006233 0.70595187 4.9812447e-39
0.64788502 0.026808413 0.70181483 1.428996e-38
0.65531898 0.025246345 0.70350766 1.6779605e-38
0.66451496 0.025403446 0.70514661 1.4843496e-38
0.67470938 0.025429459 0.70566905 1.5027889e-38
0.68513983 0.025585067 0.70595694 1.1523785e-38
0.69464374 0.025480276 0.70641875 6.0875726e-39
0.70448893 0.025506198 0.70653081 4.9812433e-39
0.71350276 0.024411261 0.70619643 5.81099e-39
0.64537215 0.03591267 0.7030229 1.5857285e-38
0.65501022 0.035256054 0.70482552 1.5673257e-38
0.66448349 0.035613276 0.70517993 1.5027888e-38
0.6745593 0.035239309 0.70555031 1.5120083e-38
0.68537003 0.034964174 0.70587951 1.7148026e-38
0.69464856 0.03507084 0.70603991 1.7148768e-38
0.70436269 0.034844398 0.70600533 1.097244e-38
0.7123003 0.033484504 0.70383406 1.6963647e-38
0.45493546 0.047904205 0.7038334 7.0075741e-39
0.64708424 0.043027218 0.70229435 1.410557e-38
0.65484709 0.04603998 0.70370638 1.4198126e-38
0.66538483 0.045128807 0.70526701 1.4751301e-38
0.67558593 0.044372711 0.70589375 1.6134234e-38
0.68537098 0.044471398 0.70587975 1.9637303e-38
0.69551873 0.044341262 0.70521736 1.9637298e-38
0.70369899 0.043946993 0.70361847 1.9084132e-38
0.45370066 0.055545416 0.70328689 8.4894402e-39
0.65743428 0.052637637 0.70150614 1.1616649e-38
0.66538274 0.054489788 0.70373982 1.2815193e-38
0.67493469 0.055049192 0.70666009 1.7148026e-38
0.68490249 0.054497663 0.70668483 2.0282311e-38
0.69425744 0.05421916 0.70482105 2.0282671e-38
0.70015961 0.054427568 0.70218009 2.0375233e-38
0.45564416 0.06329897 0.70480174 8.490857e-39
0.46217889 0.068108991 0.70547009 8.3064685e-39
0.6678648 0.061056644 0.70166177 1.0325911e-38
0.67539799 0.063051775 0.70462698 1.4474714e-38
0.68537486 0.065183155 0.70453393 1.6871439e-38
0.69094855 0.063382909 0.70559591 1.8900104e-38
0.46761179 0.071699545 0.70437795 8.3064685e-39
0.47547781 0.076910622 0.70547813 8.3064685e-39
0.48543021 0.083420806 0.70486301 8.3064685e-39
0.49297711 0.088300131 0.7051689 8.3064685e-39
0.49793068 0.091471948 0.70480061 8.3064685e-39
0.50519609 0.095985383 0.70516473 8.6738091e-39
0.51029241 0.099164821 0.70356774 8.5819736e-39
0.51582718 0.10247939 0.7047646 8.671298e-39
0.52480978 0.10748775 0.70516437 8.5759004e-39
0.63565218 0.10844671 0.70438039 1.521264e-38
0.64150453 0.10966218 0.7062093 1.6410822e-38
0.53495038 0.11305748 0.70424628 8.022742e-39
0.54329872 0.11735293 0.70707524 8.3975893e-39
0.6353752 0.11069936 0.70916331 1.6503739e-38
0.64297473 0.11463634 0.70829535 2.0098647e-38
0.6084612 0.13592574 0.70508611 1.1985432e-38
0.61061585 0.13156809 0.70777076 1.1801041e-38
0.60774606 0.14508462 0.70479912 1.2722997e-38
0.61072361 0.14837259 0.70895845 1.3737149e-38
0.60885006 0.1515937 0.70312339 1.3368366e-38
0.61378199 0.15327853 0.70571494 1.3737149e-38
0.44881073 0.18979706 0.70395881 1.207569e-38
0.453697 0.18948132 0.70596862 1.2167148e-38
0.43907547 0.1993251 0.70720446 1.1781511e-38
0.443142 0.19443211 0.70531917 1.1788677e-38
0.42716306 0.20692147 0.70801663 1.0323985e-38
0.43550441 0.20500323 0.7049796 1.178975e-38
0.42797491 0.21611649 0.70533246 1.0510518e-38
0.43116945 0.21116558 0.70524395 1.1797991e-38
0.42492503 0.22450958 0.70520979 1.0323978e-38
0.42752388 0.23241024 0.70502001 5.0707512e-39
0.43266481 0.23763013 0.70665729 5.1629497e-39
0.43611997 0.24011549 0.70108962 4.8867257e-39
0.44520378 -0.39460894 0.71459371 6.9845438e-39
0.43793955 -0.38268131 0.71542126 7.6317012e-39
0.44028267 -0.38681605 0.71724671 6.891988e-39
0.4334949 -0.37450936 0.71478158 8.6436868e-39
0.42755318 -0.36413187 0.71489465 1.0853134e-38
0.43089622 -0.36983526 0.71204114 1.0299245e-38
0.42279086 -0.35506076 0.71545279 1.0950356e-38
0.41739774 -0.34462765 0.71508121 1.0858517e-38
0.41240427 -0.33489433 0.71452564 9.014263e-39
0.40737295 -0.32509223 0.71521276 8.1823569e-39
0.4023439 -0.31435019 0.71523207 6.337022e-39
0.39835244 -0.304077 0.71494877 6.2448278e-39
0.40029502 -0.30851912 0.71793556 6.2448278e-39
0.63803113 -0.30038142 0.71237266 1.8450547e-39
0.39619049 -0.29445887 0.71482593 6.2448278e-39
0.62882203 -0.29028273 0.71019363 2.8660659e-39
0.63383114 -0.29496771 0.71513152 2.6827495e-39
0.39869466 -0.28932974 0.71836585 6.4295763e-39
0.40504354 -0.2855216 0.71467948 7.1685749e-39
0.41125169 -0.28088087 0.71366304 9.7648208e-39
0.62583351 -0.28485623 0.714881 2.7875246e-39
0.41615257 -0.2775546 0.71490467 8.8385443e-39
0.42487681 -0.2726585 0.7145589 8.4679625e-39
0.61842638 -0.27340835 0.71432221 2.7882434e-39
0.6215328 -0.27816895 0.71573532 2.789321e-39
0.43419936 -0.26749307 0.71544391 7.7267976e-39
0.61345786 -0.26518023 0.71510845 3.1580993e-39
0.60653305 -0.25502494 0.71498054 3.2499362e-39
0.61003363 -0.25985658 0.71639615 2.7904e-39
0.59736705 -0.24281591 0.71500069 3.5258015e-39
0.60151809 -0.24807276 0.71470523 3.617637e-39
0.58862329 -0.23194358 0.71472096 3.8935022e-39
0.59256929 -0.23680906 0.71512067 3.433966e-39
0.57890332 -0.22036527 0.71224582 5.3650225e-39
0.5832864 -0.22525707 0.71531349 3.6179957e-39
0.56897736 -0.21378776 0.71252984 9.5858176e-39
0.57484514 -0.21491727 0.7149232 3.3399739e-39
0.56673014 -0.20485666 0.7151438 2.786447e-39
0.57132733 -0.20976284 0.71881551 2.7904e-39
0.55716479 -0.19333009 0.71486253 2.7846491e-39
0.56140316 -0.19840565 0.71505016 2.7853694e-39
0.54926407 -0.18164109 0.71583986 2.7842918e-39
0.55233347 -0.18665835 0.715177 2.7846505e-39
0.54625851 -0.17464295 0.71281993 2.8678624e-39
0.55047792 -0.17406207 0.71768397 4.4366076e-39
0.54225951 -0.16433498 0.71450192 2.8631933e-39
0.54638547 -0.15620914 0.71402979 3.0439944e-39
0.55181885 -0.15191391 0.71639538 3.0439944e-39
0.55632287 -0.1492599 0.71593225 2.8599591e-39
0.56523556 -0.14721295 0.71525866 2.8599577e-39
0.57517791 -0.14614554 0.71479219 2.8599577e-39
0.58163184 -0.14553401 0.71508044 2.8599577e-39
0.44800478 -0.061639126 0.71142477 5.0606381e-39
0.45435092 -0.063275538 0.71187395 6.2566519e-39
0.46270341 -0.061123274 0.71096385 6.5328759e-39
0.4460566 -0.054314747 0.71218312 5.520533e-39
0.45472738 -0.054828927 0.71394712 6.2566519e-39
0.46464449 -0.054657683 0.71323937 6.5328759e-39
0.47395921 -0.053307872 0.71188152 6.4406816e-39
0.4809131 -0.051216274 0.7111516 6.5328759e-39
0.4473415 -0.046684016 0.71154547 5.2446678e-39
0.45500183 -0.045108814 0.71314943 5.796757e-39
0.46463352 -0.044794369 0.71431488 6.2566519e-39
0.47461161 -0.044859808 0.71406221 6.4406816e-39
0.48395878 -0.044181187 0.71283406 6.7165469e-39
0.45698598 -0.038780231 0.7111125 5.2446678e-39
0.46549803 -0.035623178 0.7121442 5.7045627e-39
0.47476721 -0.034722108 0.71363324 6.0726222e-39
0.4842349 -0.035482239 0.71320051 6.5325171e-39
0.70509094 -0.036022358 0.71259642 1.3460561e-38
0.46934742 -0.028947685 0.71057391 5.4286975e-39
0.47579458 -0.027837615 0.71162808 5.4286975e-39
0.4831593 -0.027946308 0.7110374 6.3488461e-39
0.73013663 -0.0054043592 0.71380121 1.8807913e-38
0.67983234 0.018574148 0.71581179 1.5027888e-38
0.45456958 0.048523512 0.71422493 6.730281e-39
0.46040243 0.048310719 0.71140862 7.467846e-39
0.452409 0.05521515 0.71535569 7.1962211e-39
0.46353567 0.051539045 0.71395016 7.0107677e-39
0.45571148 0.062870383 0.71475953 8.3064685e-39
0.46346822 0.068223149 0.71470827 8.3064685e-39
0.46813115 0.071274325 0.71483499 8.3064685e-39
0.47436678 0.075792849 0.71499509 8.3983026e-39
0.4846257 0.083133444 0.71524805 8.6730902e-39
0.49261522 0.088247903 0.71504509 8.3936391e-39
0.49754524 0.091234393 0.7144658 8.7617097e-39
0.50541127 0.096005745 0.71480399 9.0358191e-39
0.51174217 0.099849835 0.71761483 1.1155664e-38
0.51525754 0.10197142 0.71428603 9.6801502e-39
0.52378756 0.10686575 0.71510673 1.0418102e-38
0.52951479 0.11014682 0.71739864 8.8507805e-39
0.53490663 0.11325743 0.71456712 8.3926343e-39
0.54297537 0.11740032 0.71602684 6.3671611e-39
0.63519353 0.11357336 0.71196139 1.89923e-38
0.6401599 0.11588173 0.71130538 1.9453637e-38
0.61307395 0.12986159 0.71421313 1.1893236e-38
0.61250806 0.13543016 0.71484065 1.1985432e-38
0.61473531 0.14486064 0.713579 1.5120082e-38
0.6221891 0.14661118 0.71670926 1.4474714e-38
0.61884308 0.1510148 0.71144444 1.5673257e-38
0.62583971 0.15173835 0.71586382 1.4106292e-38
0.45460069 0.18976611 0.71516478 1.2627739e-38
0.43938074 0.19892812 0.71315825 1.177757e-38
0.4443514 0.19395821 0.71569765 1.3441723e-38
0.45217982 0.19089496 0.71760207 1.5300297e-38
0.43556941 0.20497972 0.71548843 1.1783303e-38
0.44037026 0.20002072 0.71959805 1.214599e-38
0.42771187 0.2164 0.7155323 1.179835e-38
0.43097967 0.21167231 0.7161569 1.1890544e-38
0.47942808 0.21356051 0.71871191 1.2894293e-38
0.42555782 0.22470872 0.71520972 1.0508008e-38
0.42828777 0.23222457 0.71348566 6.4533185e-39
0.43286166 0.23645255 0.71608782 7.9276877e-39
0.43896079 0.24162719 0.71431589 7.9276793e-39
0.4435083 0.24410537 0.71722019 1.0415814e-38
0.44449976 -0.39465559 0.7255668 6.3373821e-39
0.43769816 -0.38367689 0.72620028 6.2448292e-39
0.44101682 -0.38871405 0.72230637 6.4299379e-39
0.43272579 -0.37485656 0.72534198 8.9191989e-39
0.42714962 -0.36416152 0.72447866 1.0397898e-38
0.43009955 -0.36967409 0.72330844 1.0668026e-38
0.4128311 -0.35471034 0.72025675 9.4770306e-39
0.42225084 -0.3547875 0.72468621 9.2926421e-39
0.4171831 -0.34494153 0.72520185 1.0398976e-38
0.40979564 -0.33050209 0.72514755 8.2727561e-39
0.41239533 -0.33556223 0.7247842 9.1943452e-39
0.40694255 -0.32487401 0.72516894 6.7058031e-39
0.40292767 -0.31498906 0.72458088 6.2448278e-39
0.3990705 -0.30347148 0.72426671 6.2448278e-39
0.40074506 -0.30829987 0.72452098 6.2448278e-39
0.39615497 -0.29419297 0.72431773 6.2448278e-39
0.63512957 -0.29458943 0.72505963 2.5894734e-39
0.64124703 -0.29876721 0.72931778 1.5684636e-39
0.3978585 -0.28870609 0.72568417 7.2589671e-39
0.40504026 -0.28432226 0.72462815 6.9845494e-39
0.41190118 -0.28126603 0.72506464 8.8381842e-39
0.6266517 -0.28367591 0.72540116 2.7904e-39
0.63072276 -0.28904742 0.72616076 2.7904e-39
0.41607419 -0.27777627 0.72449982 8.7459886e-39
0.42507225 -0.27264288 0.72487241 6.5232167e-39
0.61910379 -0.2722066 0.72437072 2.7904e-39
0.62223232 -0.27702197 0.72488445 2.8811635e-39
0.42999905 -0.26980513 0.72346747 6.2448278e-39
0.4342795 -0.26748762 0.72555321 6.2448278e-39
0.61481696 -0.26534247 0.72490722 2.7904e-39
0.43167323 -0.25773129 0.7225675 7.5308876e-39
0.60720211 -0.25439593 0.72457999 2.7904e-39
0.61151469 -0.25948226 0.72708505 2.7846505e-39
0.59833813 -0.24253127 0.72516948 2.7904e-39
0.60218328 -0.24742231 0.72490698 2.7903986e-39
0.58925122 -0.23123577 0.72426766 2.7904e-39
0.59327638 -0.23612197 0.72524714 2.7904e-39
0.57792425 -0.22560884 0.72741389 1.1154666e-38
0.58432585 -0.22483262 0.72510272 2.7904e-39
0.57599211 -0.21436474 0.72466403 2.7904e-39
0.58039069 -0.21936297 0.72731292 2.7904e-39
0.56699604 -0.20316508 0.72425777 2.7904e-39
0.57123655 -0.20796153 0.72639406 2.7904e-39
0.5581044 -0.19250657 0.72466046 2.7904e-39
0.562298 -0.19730371 0.72518808 2.7904e-39
0.54887259 -0.18174796 0.72384065 2.7904e-39
0.55296606 -0.18635835 0.72561824 2.7904e-39
0.54505259 -0.1745884 0.72531372 2.7911203e-39
0.54366845 -0.16569901 0.72447491 2.8790055e-39
0.54596549 -0.15529877 0.72609389 2.8613954e-39
0.55337936 -0.15072076 0.72002673 2.8599577e-39
0.55437911 -0.14845777 0.7253387 2.8599577e-39
0.56634659 -0.14652213 0.72460538 2.8599577e-39
0.57732666 -0.14566058 0.72610945 2.8599577e-39
0.45461434 0.048567288 0.72440076 5.9005203e-39
0.45273376 0.05496515 0.72512633 7.1958638e-39
0.45636538 0.062490895 0.72496212 8.3064685e-39
0.46275938 0.067770936 0.72516805 8.6734489e-39
0.46836346 0.071383424 0.72577798 8.3003658e-39
0.47478166 0.075932555 0.72482753 8.5758962e-39
0.4804129 0.079857305 0.72774923 1.0694318e-38
0.48540592 0.083461024 0.72478199 9.311711e-39
0.49370179 0.088685334 0.72501802 1.097127e-38
0.49827313 0.091549627 0.7264263 1.1432257e-38
0.50447983 0.095479168 0.72449702 1.1155668e-38
0.51074719 0.099301226 0.72497231 1.0694694e-38
0.51664078 0.10266219 0.72516501 8.7589464e-39
0.52548069 0.1076816 0.7247985 7.7444343e-39
0.53507131 0.11305643 0.72477967 7.9320135e-39
0.5440588 0.11620981 0.72670901 9.5982667e-39
0.61631709 0.1350345 0.72566539 1.1970308e-38
0.61805385 0.14099801 0.72194368 1.1893236e-38
0.62462306 0.14262694 0.72451472 1.3453001e-38
0.44586039 0.19707482 0.72329104 1.5103011e-38
0.45472625 0.19551438 0.72341353 1.9356842e-38
0.46320337 0.19789991 0.7226485 1.9724543e-38
0.43762019 0.20696738 0.72267562 1.3991664e-38
0.4447982 0.20479536 0.72599804 1.7688389e-38
0.45502967 0.20492239 0.72705501 1.9910007e-38
0.46457466 0.2051591 0.72553539 2.0647202e-38
0.47242242 0.20626169 0.72134745 2.0831238e-38
0.42868185 0.21845877 0.72130764 1.2904681e-38
0.43450725 0.21528628 0.72457629 1.5946373e-38
0.4446848 0.21488172 0.72760576 1.9172453e-38
0.45484412 0.2148295 0.72826904 1.9817813e-38
0.46453911 0.21493477 0.72730398 2.0555008e-38
0.47209302 0.21330842 0.72381335 2.0463182e-38
0.42786911 0.2245717 0.72252077 1.4102847e-38
0.4347899 0.22518398 0.72610998 1.7789899e-38
0.44465321 0.22486767 0.72794122 1.9356842e-38
0.45492578 0.22479643 0.72805607 2.0002202e-38
0.46299925 0.22418626 0.72644562 2.0278784e-38
0.4294824 0.23098387 0.72180676 1.2167128e-38
0.43572623 0.23408616 0.72391552 1.4932242e-38
0.44469741 0.23504728 0.7269249 1.7605512e-38
0.45391595 0.23424867 0.72731507 1.9725619e-38
0.4609302 0.23274608 0.72460395 2.0370978e-38
0.44588307 0.24201107 0.72375292 1.4563822e-38
0.45153043 0.24059966 0.72594857 1.8435258e-38
0.44425631 -0.39494357 0.7352404 6.2448278e-39
0.45358425 -0.39279807 0.73895884 6.4306581e-39
0.43742988 -0.38375658 0.7349965 6.2448278e-39
0.44054139 -0.38876426 0.73281145 6.2448278e-39
0.42958218 -0.37024474 0.7363469 6.1555062e-39
0.43255296 -0.37536058 0.73536927 7.62883e-39
0.42681104 -0.36476383 0.73495585 8.5547225e-39
0.41968682 -0.35061118 0.73371542 8.0944675e-39
0.42206541 -0.35547972 0.73479843 6.6146837e-39
0.41680449 -0.34491113 0.73515743 9.0174887e-39
0.40976745 -0.33108139 0.73752117 6.2448292e-39
0.41214755 -0.33561632 0.73486477 6.8916265e-39
0.40644622 -0.32461879 0.73515713 6.521772e-39
0.39873618 -0.31007564 0.73986071 6.2448278e-39
0.40207052 -0.31524447 0.73470449 6.2448278e-39
0.39751595 -0.30380586 0.73455006 6.2448278e-39
0.40232003 -0.30933714 0.73369062 6.6136047e-39
0.39602199 -0.29268134 0.73570436 6.8901888e-39
0.63632286 -0.29267061 0.73453426 2.9568308e-39
0.64211434 -0.29760638 0.7339108 2.0298159e-39
0.39888355 -0.28889674 0.73336411 8.4582123e-39
0.40444964 -0.28506353 0.73517048 6.4295777e-39
0.4113822 -0.28074002 0.73488522 7.1718245e-39
0.62792516 -0.28344029 0.73465061 2.7832128e-39
0.63212168 -0.28791404 0.73607296 2.8718183e-39
0.6423263 -0.28916457 0.73889107 3.5053439e-39
0.39844242 -0.27880529 0.73142916 7.2632999e-39
0.41648436 -0.27781576 0.73488933 1.0042125e-38
0.42484489 -0.27325961 0.73510426 9.9488478e-39
0.43147764 -0.27084306 0.73789483 8.8378227e-39
0.61939365 -0.27091241 0.73468733 2.7835715e-39
0.62287539 -0.27609649 0.7352736 2.7806974e-39
0.4358542 -0.26819658 0.73477209 6.245548e-39
0.44166708 -0.26661894 0.73713344 6.2448278e-39
0.61531866 -0.26477391 0.73483664 2.781775e-39
0.60727185 -0.25349528 0.73487544 2.781775e-39
0.61092883 -0.2582995 0.73559016 2.7799786e-39
0.59847701 -0.2420751 0.7351594 2.7821352e-39
0.60230762 -0.2472014 0.73515373 2.7814163e-39
0.58963978 -0.23030514 0.73328745 2.7853694e-39
0.593512 -0.23534776 0.73481834 2.7824939e-39
0.58586639 -0.22506025 0.73525727 2.781775e-39
0.5768013 -0.21370223 0.73483282 2.7835729e-39
0.58090597 -0.21877782 0.73497009 2.7835715e-39
0.56788051 -0.20261961 0.73514247 2.7839316e-39
0.57195097 -0.20755616 0.73564678 2.781775e-39
0.55870086 -0.19150169 0.73465687 2.7864456e-39
0.56288517 -0.19648533 0.73536736 2.7839316e-39
0.54860204 -0.18035655 0.73063433 2.7904e-39
0.55342573 -0.1851335 0.73526174 2.7850092e-39
0.54767072 -0.17506091 0.73540378 2.8804447e-39
0.55066031 -0.1788156 0.73911589 3.1419424e-39
0.54495496 -0.16519757 0.73655456 3.0659191e-39
0.54657662 -0.15597077 0.73400795 2.8621143e-39
0.55090898 -0.15100993 0.73390609 2.8599577e-39
0.55468971 -0.14749551 0.73546696 2.8599605e-39
0.56309199 -0.14540645 0.73566896 2.8599577e-39
0.57401949 -0.14540441 0.73455417 2.8599577e-39
0.58092821 -0.14452994 0.73845553 2.8599577e-39
0.45473692 0.048428249 0.73370934 6.730281e-39
0.46286234 0.047353622 0.73288178 4.8863684e-39
0.45339924 0.054576173 0.73566675 7.1962225e-39
0.45775372 0.062728912 0.73551178 8.3064685e-39
0.46303332 0.067862809 0.73469085 8.3050336e-39
0.467866 0.071511544 0.7343483 8.2982989e-39
0.47506395 0.075869858 0.73531789 1.097128e-38
0.48036769 0.07955078 0.73380286 1.1340062e-38
0.48537958 0.083188087 0.73458451 1.0418106e-38
0.49248949 0.088039435 0.73504019 8.4819965e-39
0.49752042 0.091211118 0.73539305 7.5604018e-39
0.50530231 0.095996223 0.73488969 7.6518771e-39
0.51209736 0.097489491 0.73849094 8.2075228e-39
0.51550597 0.10196502 0.73426044 8.113577e-39
0.52411216 0.10682173 0.73506093 8.8507805e-39
0.5323649 0.11139179 0.7341091 8.9433278e-39
0.62485063 0.12761886 0.7344563 1.445347e-38
0.63295126 0.12852123 0.73208302 1.8873457e-38
0.61923331 0.13221262 0.73133945 1.2595152e-38
0.62369615 0.13456617 0.73511481 1.3328397e-38
0.63002026 0.13428882 0.73749304 1.6170619e-38
0.44375739 -0.39489856 0.74513298 6.2448278e-39
0.43737459 -0.38400421 0.74467683 6.2448278e-39
0.44051811 -0.38924134 0.74244708 6.2448278e-39
0.42974362 -0.37029123 0.74567717 6.2448292e-39
0.43276617 -0.37564093 0.7456615 6.3370234e-39
0.42671707 -0.36486059 0.74497575 6.8919866e-39
0.41959843 -0.35065508 0.74312019 6.2448278e-39
0.42217135 -0.35582548 0.74518603 6.2448278e-39
0.41677284 -0.34483492 0.74478585 6.3377408e-39
0.40815026 -0.33249593 0.74535841 6.2448278e-39
0.41211346 -0.33581316 0.74515986 6.153351e-39
0.40666452 -0.32536516 0.74473864 6.2448278e-39
0.39917022 -0.31131682 0.74543917 6.2448278e-39
0.40210229 -0.31674317 0.7448647 6.2448278e-39
0.39564738 -0.30468705 0.74597752 6.2448278e-39
0.63408941 -0.30156249 0.74242914 1.9372573e-39
0.39609206 -0.29475018 0.74467582 7.1671302e-39
0.40077695 -0.29057911 0.74616683 6.2448278e-39
0.63789034 -0.29193243 0.74473357 2.8599577e-39
0.64125431 -0.29590267 0.74448597 1.9372559e-39
0.40535751 -0.28574821 0.74494177 6.6150508e-39
0.41111773 -0.28075084 0.74572104 8.3750494e-39
0.62907904 -0.28184184 0.74443215 2.8599577e-39
0.63330543 -0.28648847 0.74534923 2.8599577e-39
0.41604632 -0.27794501 0.74510485 8.0048236e-39
0.42478696 -0.27406049 0.74525517 6.430298e-39
0.43255576 -0.27108926 0.74518895 6.2448278e-39
0.62373072 -0.2748895 0.74502367 2.8599577e-39
0.67344826 -0.27476248 0.74882728 4.6124454e-39
0.43786529 -0.26913926 0.74493694 6.2448278e-39
0.44242403 -0.26746932 0.74451578 6.2448278e-39
0.61648464 -0.26492265 0.7446444 2.8599577e-39
0.62053853 -0.26938242 0.74969113 2.8599577e-39
0.66876948 -0.26468569 0.74949682 4.981595e-39
0.67042291 -0.26375419 0.74790221 4.9815782e-39
0.60742825 -0.2531653 0.74573797 2.8599577e-39
0.61127287 -0.25801465 0.74451274 2.8599577e-39
0.66717356 -0.25583443 0.74797744 4.889014e-39
0.59877592 -0.24223161 0.7447713 2.8599577e-39
0.6025722 -0.24714123 0.74539369 2.8599577e-39
0.65780741 -0.24374895 0.74653482 4.5202371e-39
0.66288263 -0.24836995 0.74754667 4.7049787e-39
0.5791716 -0.23018937 0.74180001 7.3875558e-39
0.59359813 -0.2350139 0.74518055 2.8599577e-39
0.61756146 -0.23182116 0.74886656 4.8894064e-39
0.64819795 -0.23240305 0.7490139 4.6127901e-39
0.65307403 -0.23473179 0.74646306 4.7049731e-39
0.58628225 -0.22484593 0.74542129 2.8599577e-39
0.59190625 -0.22853005 0.7480095 2.7742304e-39
0.64578378 -0.22541714 0.74683547 5.1659569e-39
0.65004754 -0.22869392 0.74486637 5.2581553e-39
0.57769418 -0.2132438 0.74504149 2.8599591e-39
0.58156478 -0.21806005 0.74609739 2.8599577e-39
0.63576251 -0.21527912 0.74930239 5.3503761e-39
0.64107996 -0.21836728 0.74697185 6.4563201e-39
0.56879628 -0.20199943 0.74416858 2.8599577e-39
0.57295537 -0.20677653 0.74606907 2.8599591e-39
0.6273151 -0.20119517 0.74724919 6.9169381e-39
0.63134247 -0.2066776 0.74769449 6.5481612e-39
0.55944842 -0.19076461 0.74343866 2.8599577e-39
0.56390041 -0.1954345 0.74565732 2.8599591e-39
0.61811775 -0.19110166 0.74992752 5.442199e-39
0.62425303 -0.19588636 0.74697578 6.8250998e-39
0.55553156 -0.18472469 0.74499428 2.9521561e-39
0.56004119 -0.18828383 0.74966079 2.8599577e-39
0.61403906 -0.18417928 0.74917197 5.6269518e-39
0.54896837 -0.17294513 0.74699521 2.9521561e-39
0.55141699 -0.17653963 0.74490106 2.9525162e-39
0.6067273 -0.1735642 0.74867475 5.6269448e-39
0.61028862 -0.17882702 0.74900997 5.7191432e-39
0.54802048 -0.16449019 0.74314344 2.8624758e-39
0.55008835 -0.16957451 0.74290025 2.8599577e-39
0.5994069 -0.16307428 0.74805212 5.9031519e-39
0.60186321 -0.16606617 0.74807817 6.0875544e-39
0.54715133 -0.15490681 0.7453084 2.952875e-39
0.55052584 -0.15051231 0.74005407 2.8599577e-39
0.59743065 -0.15983288 0.74675107 5.902775e-39
0.54991311 -0.14998509 0.74310893 2.8599577e-39
0.55509073 -0.1482891 0.74380922 3.0443587e-39
0.56471503 -0.14626537 0.7435807 3.1365544e-39
0.57521081 -0.14503397 0.74525225 3.1365544e-39
0.58123207 -0.14845419 0.74966264 3.3209554e-39
0.45567489 0.048768573 0.74620771 6.730281e-39
0.45537969 0.054597806 0.74380261 7.2880608e-39
0.45842108 0.063252859 0.74461269 8.3064685e-39
0.46421245 0.068258636 0.74514347 8.211787e-39
0.46837434 0.071175851 0.74344081 6.8231857e-39
0.47498637 0.075812586 0.74536246 7.8366285e-39
0.48014691 0.076045439 0.7416361 8.5805415e-39
0.48450884 0.082860664 0.74520606 7.5604032e-39
0.49264753 0.08805082 0.74540955 8.4819965e-39
0.4978306 0.091171883 0.74437433 8.4823581e-39
0.50510472 0.09552858 0.74497497 8.9429761e-39
0.51154137 0.099487819 0.74520284 9.3121202e-39
0.51666987 0.10265307 0.74490964 1.1063836e-38
0.52564186 0.10785818 0.74482894 1.1524452e-38
0.5343734 0.11276545 0.7456435 8.3926259e-39
0.54319811 0.11752636 0.74824315 8.8574787e-39
0.4435187 -0.39527419 0.75509304 6.6139662e-39
0.4370167 -0.38424805 0.75440639 7.4437143e-39
0.44016534 -0.38961983 0.75357014 7.35152e-39
0.42656031 -0.37646198 0.75346243 7.171463e-39
0.43197373 -0.37444565 0.75524563 6.6136061e-39
0.42706606 -0.36487344 0.75461018 6.3373821e-39
0.41952875 -0.35027054 0.75546908 6.8901888e-39
0.42226255 -0.35550058 0.75478202 7.1671316e-39
0.41709986 -0.34546003 0.75462693 6.6139648e-39
0.40936139 -0.33102083 0.75493139 6.4292176e-39
0.41220513 -0.33632222 0.75515193 6.4295763e-39
0.40609625 -0.32480818 0.75497371 6.3373821e-39
0.39916262 -0.31160453 0.75516844 6.3373821e-39
0.40170974 -0.31644171 0.75484085 6.3377422e-39
0.39623588 -0.3043614 0.75540638 7.0745772e-39
0.39502978 -0.29501647 0.75528222 7.1671302e-39
0.40103161 -0.29065007 0.75054765 6.2448278e-39
0.63927925 -0.29109147 0.75222301 3.0443531e-39
0.64513391 -0.29341716 0.75389421 2.7677649e-39
0.65528351 -0.29433602 0.7567938 3.1361774e-39
0.66149223 -0.2932677 0.75915813 2.030183e-39
0.39850363 -0.28936788 0.75782031 6.337022e-39
0.40541121 -0.28585386 0.75430095 7.9122692e-39
0.41139728 -0.28118983 0.75407028 7.9119063e-39
0.63520581 -0.28395611 0.75488257 3.5053481e-39
0.64439136 -0.28517574 0.75764674 4.612451e-39
0.65488118 -0.28506193 0.7584663 3.5979025e-39
0.66382504 -0.28330344 0.75706601 4.2436488e-39
0.41630548 -0.27796286 0.75485653 7.6331572e-39
0.42489129 -0.27436158 0.7549457 8.4683213e-39
0.43281317 -0.27119237 0.75492376 6.4302994e-39
0.62660909 -0.27385208 0.75497627 3.136553e-39
0.63455313 -0.27657291 0.75897431 4.5202511e-39
0.64605057 -0.27573019 0.75927407 4.9812461e-39
0.65557623 -0.2750183 0.75721794 4.8901281e-39
0.66383064 -0.27501926 0.75531298 5.0738047e-39
0.67081326 -0.27632663 0.75135207 4.9816034e-39
0.43776023 -0.26921055 0.75525028 6.2448278e-39
0.44188252 -0.26764226 0.75453472 6.2448278e-39
0.61777133 -0.26345685 0.75333065 3.3209512e-39
0.62282175 -0.2657527 0.75709802 3.5975437e-39
0.64775342 -0.26453733 0.75920951 4.9816076e-39
0.65519851 -0.26510307 0.75741321 5.0738047e-39
0.66307539 -0.26489252 0.75385207 5.0738033e-39
0.60851425 -0.25265351 0.75219399 3.22875e-39
0.61470604 -0.25579533 0.75576437 3.6897436e-39
0.6239602 -0.25567889 0.75935221 4.1510973e-39
0.63547593 -0.25259411 0.7594471 4.8894092e-39
