# .PCD v0.7 - Point Cloud Data file format
VERSION 0.7
FIELDS x y z rgb
SIZE 4 4 4 4
TYPE F F F F
COUNT 1 1 1 1
WIDTH 1005
HEIGHT 1
VIEWPOINT 0 0 0 1 0 0 0
POINTS 1005
DATA ascii
0.83403802 -0.23469803 0.61000192 1.097128e-38
0.84456474 -0.23491077 0.61000192 1.097128e-38
0.85522968 -0.23512685 0.61000204 1.097128e-38
0.86426938 -0.2352792 0.6100021 1.097128e-38
0.43984032 -0.22198574 0.61090422 1.0879084e-38
0.4554061 -0.22475335 0.61950523 1.0879084e-38
0.54797632 -0.22459273 0.61000007 1.0879084e-38
0.56545597 -0.22509739 0.61000007 1.0879084e-38
0.57406378 -0.22617555 0.61097038 1.0234075e-38
0.746934 -0.22370759 0.61000133 1.097128e-38
0.75474203 -0.22532889 0.61000144 1.097128e-38
0.76420635 -0.22498298 0.6100015 1.097128e-38
0.77517134 -0.22486253 0.61000156 1.097128e-38
0.78472298 -0.22484924 0.61000156 1.097128e-38
0.79475915 -0.22514376 0.61000162 1.097128e-38
0.80474609 -0.22512104 0.61000168 1.097128e-38
0.8148737 -0.22492996 0.61000168 1.097128e-38
0.8251316 -0.22507577 0.61000186 1.097128e-38
0.8342514 -0.22479688 0.61000198 1.097128e-38
0.84464467 -0.22486992 0.61000192 1.097128e-38
0.85522932 -0.22510441 0.6100021 1.097128e-38
0.86449116 -0.22518459 0.61000216 1.097128e-38
0.38151389 -0.21464698 0.61854631 7.8366285e-39
0.54839945 -0.21444805 0.61000007 1.0879084e-38
0.55526578 -0.21517909 0.61032081 1.0879084e-38
0.56439072 -0.21606676 0.61000025 1.0879084e-38
0.57157892 -0.21967806 0.61000013 1.0879084e-38
0.73730278 -0.21278714 0.61000121 1.097128e-38
0.74534118 -0.21482931 0.61000144 1.097128e-38
0.75490993 -0.21529272 0.61000144 1.097128e-38
0.76440096 -0.21497259 0.6100015 1.097128e-38
0.77517128 -0.21502741 0.6100015 1.097128e-38
0.78489774 -0.21460775 0.61000156 1.097128e-38
0.79475921 -0.21517822 0.61000162 1.097128e-38
0.80474597 -0.21508901 0.61000168 1.097128e-38
0.81464338 -0.2150877 0.61000168 1.097128e-38
0.8251316 -0.21490806 0.61000186 1.097128e-38
0.83403808 -0.2149245 0.61000192 1.097128e-38
0.84448522 -0.2150899 0.61000198 1.097128e-38
0.85523409 -0.21488453 0.61007714 1.097128e-38
0.86449116 -0.21475483 0.61000216 1.097128e-38
0.54839945 -0.20445728 0.61000007 1.0879084e-38
0.55414182 -0.205644 0.61079484 1.0233716e-38
0.56139582 -0.20933405 0.61000007 1.0879084e-38
0.72836655 -0.20180464 0.61000127 1.097128e-38
0.73508173 -0.20456786 0.61000127 1.097128e-38
0.74521536 -0.20471494 0.61000139 1.097128e-38
0.75474173 -0.2049595 0.61000144 1.097128e-38
0.76420647 -0.20496917 0.6100015 1.097128e-38
0.77517128 -0.20519224 0.6100015 1.097128e-38
0.78489769 -0.20470786 0.61000156 1.097128e-38
0.79469138 -0.20496541 0.61000162 1.097128e-38
0.80474627 -0.20505698 0.61000168 1.097128e-38
0.81487358 -0.20523751 0.61000168 1.097128e-38
0.82491398 -0.20455477 0.61052948 1.097128e-38
0.83403832 -0.20503831 0.61000198 1.097128e-38
0.84456462 -0.2050492 0.61000204 1.097128e-38
0.85522932 -0.20506085 0.61000198 1.097128e-38
0.86471283 -0.20465453 0.6100021 1.097128e-38
0.54778457 -0.19555087 0.61325109 6.9150366e-39
0.55137426 -0.19915409 0.61000001 1.0879084e-38
0.71669418 -0.19265513 0.61003298 1.097128e-38
0.7249735 -0.1948733 0.61000109 1.097128e-38
0.73506254 -0.19492345 0.61000133 1.097128e-38
0.74540454 -0.19483289 0.61000133 1.097128e-38
0.75457424 -0.1946297 0.61000144 1.097128e-38
0.76427108 -0.19496071 0.6100015 1.097128e-38
0.77536875 -0.1951043 0.61000156 1.097128e-38
0.78489769 -0.19480795 0.61000156 1.097128e-38
0.79475915 -0.19474931 0.61000162 1.097128e-38
0.80474627 -0.19502494 0.61000162 1.097128e-38
0.8148737 -0.19513804 0.61000168 1.097128e-38
0.82513154 -0.1945726 0.61000186 1.097128e-38
0.83403814 -0.19515228 0.61000186 1.097128e-38
0.8443253 -0.19501746 0.61000186 1.097128e-38
0.85522926 -0.19469276 0.61000198 1.097128e-38
0.86449146 -0.1949369 0.6100021 1.097128e-38
0.44933313 -0.18783243 0.61434436 1.0879084e-38
0.5391463 -0.180723 0.61913222 1.6598913e-39
0.54247189 -0.18712313 0.61855674 8.3049075e-40
0.70674324 -0.18267146 0.61060798 1.0879084e-38
0.71420991 -0.18477233 0.61000097 1.097128e-38
0.72449839 -0.18505201 0.61000115 1.097128e-38
0.73493767 -0.18488094 0.61000133 1.097128e-38
0.74540454 -0.18519588 0.61000139 1.097128e-38
0.75474203 -0.18459235 0.61000144 1.097128e-38
0.76420653 -0.18495625 0.6100015 1.097128e-38
0.77517116 -0.18502878 0.6100015 1.097128e-38
0.78489774 -0.18490806 0.61000156 1.097128e-38
0.79475915 -0.18478376 0.61000162 1.097128e-38
0.80474609 -0.18499294 0.61000168 1.097128e-38
0.81487358 -0.1850386 0.61000168 1.097128e-38
0.82534218 -0.18472326 0.61000192 1.097128e-38
0.83382457 -0.18528678 0.61000198 1.097128e-38
0.84456474 -0.18497141 0.61000186 1.097128e-38
0.85544831 -0.18464936 0.6100021 1.097128e-38
0.86426926 -0.18522361 0.6100021 1.097128e-38
0.42842677 -0.17884785 0.61729175 1.0879084e-38
0.52723408 -0.17660269 0.61749029 3.3176778e-39
0.67598438 -0.17159073 0.61000085 1.097128e-38
0.68444735 -0.17277938 0.61000091 1.097128e-38
0.69471055 -0.17375606 0.61000097 1.097128e-38
0.70441562 -0.1750724 0.61000085 1.097128e-38
0.71427047 -0.17508221 0.61000097 1.097128e-38
0.72431499 -0.17485091 0.61000109 1.097128e-38
0.73481321 -0.17484096 0.61000127 1.097128e-38
0.74559426 -0.17530863 0.61000139 1.097128e-38
0.75474209 -0.17489319 0.61000144 1.097128e-38
0.76414138 -0.17495322 0.6100015 1.097128e-38
0.77517134 -0.17519359 0.61000156 1.097128e-38
0.78489769 -0.17500812 0.61000156 1.097128e-38
0.79475921 -0.1748182 0.61000162 1.097128e-38
0.80454075 -0.17531686 0.61000162 1.097128e-38
0.8148737 -0.17493916 0.61000168 1.097128e-38
0.82513154 -0.17491367 0.61000186 1.097128e-38
0.83403808 -0.17538136 0.61000192 1.097128e-38
0.84480333 -0.1749208 0.61000186 1.097128e-38
0.85522956 -0.17499198 0.61000204 1.097128e-38
0.86449146 -0.17512186 0.61000216 1.097128e-38
0.44141126 -0.16181159 0.61809731 1.0879084e-38
0.53749305 -0.16538773 0.61685568 2.1216261e-39
0.54303044 -0.16184641 0.61734563 1.6606606e-39
0.56002402 -0.16254891 0.61040419 9.0351745e-39
0.62685001 -0.16150507 0.61000049 1.0879084e-38
0.63486201 -0.16209215 0.61000055 1.0879084e-38
0.64527887 -0.16298121 0.61006248 1.0879084e-38
0.65491349 -0.16389807 0.61000067 1.0879084e-38
0.66525322 -0.1646214 0.61000067 1.0879084e-38
0.67478293 -0.16500406 0.61000067 1.0879084e-38
0.68466848 -0.16491985 0.61000079 1.0879084e-38
0.69407195 -0.16510078 0.61000091 1.097128e-38
0.7039606 -0.16479647 0.61000085 1.097128e-38
0.71450132 -0.16516772 0.61000097 1.097128e-38
0.72449875 -0.16510776 0.61000109 1.097128e-38
0.73468924 -0.16480352 0.61000127 1.097128e-38
0.74546742 -0.16519424 0.61000139 1.097128e-38
0.75474203 -0.16519402 0.61000144 1.097128e-38
0.7640124 -0.16471097 0.6100015 1.097128e-38
0.77523667 -0.16510898 0.61000156 1.097128e-38
0.7848978 -0.16510822 0.61000156 1.097128e-38
0.79475915 -0.16485266 0.61000162 1.097128e-38
0.80501807 -0.16565831 0.6104582 1.097128e-38
0.8148737 -0.1648397 0.61000168 1.097128e-38
0.8251316 -0.16474596 0.61000186 1.097128e-38
0.83403814 -0.16515435 0.61000192 1.097128e-38
0.84456474 -0.16489057 0.61000186 1.097128e-38
0.85500997 -0.1653389 0.61000204 1.097128e-38
0.86449116 -0.16469213 0.61000216 1.097128e-38
0.43789119 -0.15133728 0.61130995 1.0879084e-38
0.46438271 -0.15870844 0.61410475 1.0879084e-38
0.54845232 -0.15640101 0.61353004 6.6384735e-39
0.55474019 -0.15461822 0.61128414 9.496517e-39
0.56511688 -0.15320589 0.61000007 1.0879084e-38
0.57544708 -0.15257844 0.61000013 1.0879084e-38
0.58506906 -0.15239297 0.61000019 1.0879084e-38
0.59495252 -0.15289378 0.61000031 1.0879084e-38
0.60521394 -0.15417846 0.61000055 1.0879084e-38
0.61510843 -0.15427075 0.61000049 1.0879084e-38
0.62522024 -0.1548918 0.61000055 1.0879084e-38
0.63533294 -0.15494084 0.61000055 1.0879084e-38
0.64407665 -0.15504973 0.61000061 1.0879084e-38
0.65469056 -0.15504904 0.61000067 1.0879084e-38
0.66546834 -0.15504842 0.61000067 1.0879084e-38
0.67461222 -0.1551608 0.61000073 1.0879084e-38
0.6842261 -0.15479137 0.61000073 1.0879084e-38
0.69447225 -0.15508348 0.61000085 1.0879084e-38
0.70418805 -0.15495417 0.61000091 1.0879084e-38
0.71403974 -0.15482141 0.61000097 1.0879084e-38
0.72473288 -0.15512003 0.61000115 1.0879084e-38
0.73477668 -0.15514179 0.61035627 1.0879084e-38
0.7451635 -0.15485273 0.61000133 1.0879084e-38
0.75474197 -0.15549485 0.61000144 1.097128e-38
0.76420629 -0.1546953 0.6100015 1.097128e-38
0.77517116 -0.15503103 0.61000156 1.097128e-38
0.78489769 -0.15520832 0.61000156 1.097128e-38
0.79475933 -0.15488711 0.61000156 1.097128e-38
0.80474621 -0.15556692 0.61000162 1.097128e-38
0.81487358 -0.15474027 0.61000168 1.097128e-38
0.82513183 -0.15491708 0.61000192 1.097128e-38
0.83403814 -0.15492733 0.61000192 1.097128e-38
0.84464467 -0.15484616 0.61000186 1.097128e-38
0.85543704 -0.15549056 0.61032867 1.0879084e-38
0.86471301 -0.15458475 0.6100021 1.097128e-38
0.5338887 -0.14986795 0.6118865 1.0049688e-38
0.54938895 -0.14464442 0.61000007 1.0879084e-38
0.56545603 -0.14509563 0.61000007 1.0879084e-38
0.57584715 -0.14490974 0.61000037 1.0879084e-38
0.5851149 -0.14489086 0.61000037 1.0879084e-38
0.59434879 -0.14514203 0.61000043 1.0879084e-38
0.60515451 -0.14495529 0.61000055 1.0879084e-38
0.61525142 -0.14483236 0.61000055 1.0879084e-38
0.62506717 -0.14499871 0.61000055 1.0879084e-38
0.63502318 -0.14516832 0.61000055 1.0879084e-38
0.64443457 -0.14494152 0.61000061 1.0879084e-38
0.65469176 -0.14511244 0.61000067 1.0879084e-38
0.66503817 -0.14506321 0.61000067 1.0879084e-38
0.67493951 -0.14505564 0.61000067 1.0879084e-38
0.68444735 -0.1450856 0.61000073 1.0879084e-38
0.69402373 -0.14488658 0.61000085 1.0879084e-38
0.70441556 -0.14510702 0.61000085 1.0879084e-38
0.71427059 -0.14490694 0.61000097 1.0879084e-38
0.72443724 -0.14492747 0.61000097 1.0879084e-38
0.73506254 -0.14516896 0.61000127 1.0879084e-38
0.7454046 -0.14472039 0.61000144 1.0879084e-38
0.75490999 -0.14545062 0.61000144 1.0879084e-38
0.76420647 -0.14493315 0.6100015 1.0879084e-38
0.77510536 -0.14495456 0.61000156 1.0879084e-38
0.78489769 -0.14530841 0.61000156 1.0879084e-38
0.79475915 -0.14492156 0.61000156 1.0879084e-38
0.80474609 -0.1455349 0.61000168 1.0879084e-38
0.81487358 -0.14464082 0.61000168 1.0879084e-38
0.82492065 -0.14545324 0.61000192 1.0879084e-38
0.83403814 -0.14470032 0.61000186 1.0879084e-38
0.84443653 -0.14495976 0.61001623 1.0879084e-38
0.85522932 -0.144926 0.61000198 1.0879084e-38
0.86425251 -0.14525056 0.6100021 1.097128e-38
0.42160538 -0.13171834 0.61145002 1.0879084e-38
0.54938895 -0.13464577 0.61000007 1.0879084e-38
0.56545597 -0.13496861 0.61000019 1.0879084e-38
0.57570493 -0.13487528 0.61000037 1.0879084e-38
0.5850237 -0.13504279 0.61000037 1.0879084e-38
0.59457684 -0.13512093 0.61000043 1.0879084e-38
0.60534203 -0.13492446 0.61009717 1.0879084e-38
0.61510867 -0.13497628 0.61000055 1.0879084e-38
0.62491268 -0.13510931 0.61000055 1.0879084e-38
0.63531858 -0.13490731 0.61000055 1.0879084e-38
0.64412159 -0.13510476 0.61000061 1.0879084e-38
0.65453029 -0.13500232 0.61000067 1.0879084e-38
0.66546845 -0.13501762 0.61000067 1.0879084e-38
0.67461222 -0.1349961 0.61000073 1.0879084e-38
0.68460578 -0.13514936 0.61000079 1.0879084e-38
0.69424796 -0.13511066 0.61000091 1.0879084e-38
0.7039606 -0.13484085 0.61000085 1.0879084e-38
0.71445221 -0.13522722 0.61000097 1.0879084e-38
0.72431499 -0.13496506 0.61000127 1.0879084e-38
0.73493767 -0.13513076 0.61000127 1.0879084e-38
0.7454046 -0.13508339 0.61000144 1.0879084e-38
0.75474185 -0.13512546 0.61000144 1.0879084e-38
0.76420647 -0.13517097 0.61000144 1.0879084e-38
0.77497435 -0.13463843 0.61000156 1.0879084e-38
0.7848978 -0.13540849 0.61000156 1.0879084e-38
0.79455692 -0.13472193 0.61000162 1.0879084e-38
0.80474609 -0.13550285 0.61000162 1.0879084e-38
0.8148737 -0.13454138 0.61000168 1.0879084e-38
0.8251316 -0.13559978 0.61000186 1.0879084e-38
0.83403802 -0.13447329 0.61000192 1.0879084e-38
0.8443253 -0.1353036 0.61000186 1.0879084e-38
0.85522932 -0.13455793 0.61000198 1.0879084e-38
0.86449116 -0.1354889 0.61000216 1.0879084e-38
0.54938895 -0.12464711 0.61000007 1.0879084e-38
0.56545603 -0.1248416 0.61000031 1.0879084e-38
0.57577634 -0.12483273 0.61000037 1.0879084e-38
0.58493227 -0.1251969 0.61000037 1.0879084e-38
0.59472322 -0.12492625 0.61000043 1.0879084e-38
0.60538161 -0.12492544 0.61000049 1.0879084e-38
0.61496502 -0.12512362 0.61000055 1.0879084e-38
0.62522006 -0.124846 0.61000055 1.0879084e-38
0.63500965 -0.1251394 0.61000055 1.0879084e-38
0.6442852 -0.12500805 0.61000061 1.0879084e-38
0.65495008 -0.12486634 0.61000067 1.0879084e-38
0.66503805 -0.1250387 0.61000067 1.0879084e-38
0.67500138 -0.12510993 0.61000067 1.0879084e-38
0.68427372 -0.12502156 0.61000079 1.0879084e-38
0.69440866 -0.12510298 0.61000085 1.0879084e-38
0.70418811 -0.12499368 0.61000091 1.0879084e-38
0.71410477 -0.12488166 0.61000097 1.0879084e-38
0.72449881 -0.12521675 0.61000115 1.0879084e-38
0.73463815 -0.12487071 0.61000133 1.0879084e-38
0.74559414 -0.12518956 0.61000139 1.0879084e-38
0.75457424 -0.12480368 0.61000144 1.0879084e-38
0.76420635 -0.1254088 0.61000144 1.0879084e-38
0.77517128 -0.12454389 0.61000156 1.0879084e-38
0.78489763 -0.12550861 0.61000156 1.0879084e-38
0.79475927 -0.12449358 0.61000162 1.0879084e-38
0.80474627 -0.12547083 0.61000168 1.0879084e-38
0.81510323 -0.1246761 0.61000168 1.0879084e-38
0.82513148 -0.12543203 0.61000186 1.0879084e-38
0.83425122 -0.1245582 0.61000198 1.0879084e-38
0.84456474 -0.12524828 0.61000186 1.0879084e-38
0.85544842 -0.12450606 0.61000204 1.0879084e-38
0.8644914 -0.12505916 0.61000216 1.0879084e-38
0.49717602 -0.11449352 0.61470163 1.0879084e-38
0.54914433 -0.11482995 0.61060435 1.0879084e-38
0.56528121 -0.11469397 0.61014104 1.0879084e-38
0.57570523 -0.11496741 0.61000043 1.0879084e-38
0.58506906 -0.11511568 0.61000037 1.0879084e-38
0.59465027 -0.11491407 0.61000043 1.0879084e-38
0.60507208 -0.11519387 0.61000049 1.0879084e-38
0.61510837 -0.11480716 0.61000055 1.0879084e-38
0.62506717 -0.11495638 0.61000055 1.0879084e-38
0.63517094 -0.11510984 0.61000055 1.0879084e-38
0.64444917 -0.1149077 0.61000061 1.0879084e-38
0.65444148 -0.11495554 0.61000067 1.0879084e-38
0.66546828 -0.11498678 0.61000067 1.0879084e-38
0.67456532 -0.11506462 0.61000067 1.0879084e-38
0.68466854 -0.11506315 0.61000079 1.0879084e-38
0.69407201 -0.11490605 0.61000091 1.0879084e-38
0.70441562 -0.11514167 0.61000085 1.0879084e-38
0.71427059 -0.11473167 0.61000097 1.0879084e-38
0.72473288 -0.11522248 0.61000109 1.0879084e-38
0.73487568 -0.11480709 0.61000127 1.0879084e-38
0.74546748 -0.11507956 0.61000133 1.0879084e-38
0.75474203 -0.11475832 0.61000144 1.0879084e-38
0.76440096 -0.1153852 0.6100015 1.0879084e-38
0.7751711 -0.11470872 0.61000156 1.0879084e-38
0.78489769 -0.11560869 0.61000156 1.0879084e-38
0.79475933 -0.11452805 0.61000156 1.0879084e-38
0.80474609 -0.11543879 0.61000162 1.0879084e-38
0.81487358 -0.11484601 0.61000168 1.0879084e-38
0.8251316 -0.1152643 0.61000186 1.0879084e-38
0.83403856 -0.11504058 0.61000198 1.0879084e-38
0.84456474 -0.11495122 0.61000186 1.0879084e-38
0.85499346 -0.11523582 0.61000204 1.0879084e-38
0.86449116 -0.11462943 0.61000216 1.0879084e-38
0.40800512 -0.10851561 0.615753 1.0879084e-38
0.54809505 -0.10452779 0.61043435 1.0879084e-38
0.56559598 -0.10474661 0.61000025 1.0879084e-38
0.57563382 -0.10510373 0.61000037 1.0879084e-38
0.58506906 -0.10483199 0.61000037 1.0879084e-38
0.59450114 -0.10508144 0.61000043 1.0879084e-38
0.60530394 -0.10508459 0.61000049 1.0879084e-38
0.61526537 -0.10492446 0.61000049 1.0879084e-38
0.62491286 -0.10507046 0.61000055 1.0879084e-38
0.63537687 -0.10484943 0.61000055 1.0879084e-38
0.64413542 -0.10507794 0.61000061 1.0879084e-38
0.6549502 -0.10498957 0.61000067 1.0879084e-38
0.66503805 -0.1050142 0.61000067 1.0879084e-38
0.6750015 -0.10493949 0.61000067 1.0879084e-38
0.68422616 -0.10495059 0.61000079 1.0879084e-38
0.69442433 -0.10511166 0.61000091 1.0879084e-38
0.70396054 -0.10488518 0.61000085 1.0879084e-38
0.71427053 -0.10530189 0.61000097 1.0879084e-38
0.72426462 -0.10481787 0.61000121 1.0879084e-38
0.73487568 -0.10524017 0.61000127 1.0879084e-38
0.74516356 -0.1047486 0.61000139 1.0879084e-38
0.75503165 -0.10516971 0.61004972 1.0879084e-38
0.76427108 -0.10514474 0.6100015 1.0879084e-38
0.77517116 -0.10487356 0.6100015 1.0879084e-38
0.78489774 -0.10570877 0.61000156 1.0879084e-38
0.79475933 -0.10456248 0.61000162 1.0879084e-38
0.80474609 -0.10540678 0.61000162 1.0879084e-38
0.81487358 -0.10474657 0.61000168 1.0879084e-38
0.8251316 -0.10509658 0.61000186 1.0879084e-38
0.83382481 -0.10552714 0.61000198 1.0879084e-38
0.84456462 -0.10465413 0.61000186 1.0879084e-38
0.85522938 -0.1055273 0.6100021 1.0879084e-38
0.86471283 -0.10451496 0.6100021 1.0879084e-38
0.38304609 -0.09599179 0.61844933 1.0786889e-38
0.54938895 -0.09465111 0.61000007 1.0879084e-38
0.56545597 -0.094797082 0.61000001 1.0879084e-38
0.57556212 -0.0952418 0.61000037 1.0879084e-38
0.58520579 -0.094746538 0.61000037 1.0879084e-38
0.59442979 -0.095246427 0.61000043 1.0879084e-38
0.60545284 -0.094802149 0.61000049 1.0879084e-38
0.61496508 -0.095309928 0.61000055 1.0879084e-38
0.62537885 -0.094765261 0.61032313 1.0879084e-38
0.6349653 -0.095099278 0.61000055 1.0879084e-38
0.6444937 -0.094955571 0.61000061 1.0879084e-38
0.65444142 -0.095086209 0.61000067 1.0879084e-38
0.66546828 -0.094955966 0.61000067 1.0879084e-38
0.67477268 -0.094794296 0.61033612 1.0879084e-38
0.68444735 -0.09523686 0.61000073 1.0879084e-38
0.69408691 -0.094919585 0.61000085 1.0879084e-38
0.70417941 -0.094845235 0.61029387 1.0879084e-38
0.71443599 -0.095147245 0.61000097 1.0879084e-38
0.72449875 -0.094823614 0.61000109 1.0879084e-38
0.7351132 -0.095169909 0.61000133 1.0879084e-38
0.7452513 -0.094580092 0.61002743 1.0879084e-38
0.75474203 -0.095359966 0.61000144 1.0879084e-38
0.76414138 -0.094906934 0.61000144 1.0879084e-38
0.77517116 -0.095038399 0.6100015 1.0879084e-38
0.78507268 -0.095450781 0.61000156 1.0879084e-38
0.79475915 -0.094596937 0.61000156 1.0879084e-38
0.80474609 -0.095374718 0.61000162 1.0879084e-38
0.81495064 -0.094891928 0.61000168 1.0879084e-38
0.8251316 -0.094928853 0.61000186 1.0879084e-38
0.8340286 -0.095446058 0.61016756 1.0879084e-38
0.84480333 -0.094591148 0.61000186 1.0879084e-38
0.85522938 -0.095159225 0.6100021 1.0879084e-38
0.86425251 -0.095195487 0.6100021 1.0879084e-38
0.53111976 -0.089075789 0.61561513 1.0879084e-38
0.54938895 -0.084652454 0.61000007 1.0879084e-38
0.56552625 -0.08483284 0.61000013 1.0879084e-38
0.57577902 -0.08503031 0.61031222 1.0879084e-38
0.5851149 -0.08490061 0.61000037 1.0879084e-38
0.59457678 -0.085049428 0.61000043 1.0879084e-38
0.60538161 -0.084882699 0.61000049 1.0879084e-38
0.61510837 -0.084990203 0.61000055 1.0879084e-38
0.62489545 -0.085104771 0.61000055 1.0879084e-38
0.63517094 -0.084838837 0.61000055 1.0879084e-38
0.64407659 -0.085142069 0.61000061 1.0879084e-38
0.65494061 -0.084932841 0.61000067 1.0879084e-38
0.66503817 -0.084989674 0.61000067 1.0879084e-38
0.67495507 -0.085003719 0.61000073 1.0879084e-38
0.68444735 -0.085082494 0.61000079 1.0879084e-38
0.6942479 -0.084909588 0.61000091 1.0879084e-38
0.70441556 -0.085176341 0.61000085 1.0879084e-38
0.71408945 -0.084811464 0.61000097 1.0879084e-38
0.72449875 -0.085325763 0.61000121 1.0879084e-38
0.73463815 -0.084696256 0.61000133 1.0879084e-38
0.7454046 -0.084970877 0.61000144 1.0879084e-38
0.75491005 -0.085308813 0.61000144 1.0879084e-38
0.76401246 -0.084671743 0.6100015 1.0879084e-38
0.77517128 -0.085203238 0.61000156 1.0879084e-38
0.78489769 -0.085247733 0.61000156 1.0879084e-38
0.79475921 -0.084631383 0.61000162 1.0879084e-38
0.80474609 -0.085342713 0.61000162 1.0879084e-38
0.8148737 -0.08505217 0.61000168 1.0879084e-38
0.82513154 -0.08476112 0.61000186 1.0879084e-38
0.83403814 -0.085383631 0.61000192 1.0879084e-38
0.84464455 -0.084822379 0.61000186 1.0879084e-38
0.85522926 -0.084791154 0.61000198 1.0879084e-38
0.86449116 -0.085426182 0.61000216 1.0879084e-38
0.4267329 -0.073320873 0.61860275 1.0879084e-38
0.45619288 -0.07749708 0.61478013 1.0879084e-38
0.54938895 -0.074653782 0.61000007 1.0879084e-38
0.56545627 -0.075048834 0.61000013 1.0879084e-38
0.57570499 -0.07498432 0.61000037 1.0879084e-38
0.5848785 -0.075290293 0.61000037 1.0879084e-38
0.59445316 -0.074562252 0.61031634 1.0879084e-38
0.60507202 -0.075160615 0.61000049 1.0879084e-38
0.61525142 -0.074667223 0.61000055 1.0879084e-38
0.62506676 -0.075195745 0.61000055 1.0879084e-38
0.63517106 -0.075045273 0.61000055 1.0879084e-38
0.64428514 -0.07481017 0.61000061 1.0879084e-38
0.65443236 -0.075036973 0.61000067 1.0879084e-38
0.66546834 -0.074925154 0.61000067 1.0879084e-38
0.67464608 -0.074927449 0.61023229 1.0879084e-38
0.68444735 -0.074928105 0.61000073 1.0879084e-38
0.69447225 -0.075120814 0.61000085 1.0879084e-38
0.70396054 -0.074929506 0.61000085 1.0879084e-38
0.71427059 -0.075126633 0.61000097 1.0879084e-38
0.72443718 -0.075552553 0.61000115 1.0879084e-38
0.73487568 -0.075582676 0.61000121 1.0879084e-38
0.7454046 -0.076297566 0.61000133 1.0879084e-38
0.75449777 -0.076649949 0.61000139 1.0879084e-38
0.76366234 -0.076952562 0.61000144 1.0879084e-38
0.77457863 -0.07841929 0.6100015 1.0879084e-38
0.78349769 -0.07987304 0.61000156 1.0879084e-38
0.81574851 -0.078443393 0.61000174 1.0879084e-38
0.82562345 -0.075470835 0.61000192 1.0879084e-38
0.83403832 -0.075156614 0.61000192 1.0879084e-38
0.84422827 -0.075342476 0.61000186 1.0879084e-38
0.85522938 -0.074423082 0.61000198 1.0879084e-38
0.86449146 -0.074996464 0.61000216 1.0879084e-38
0.43300548 -0.069293708 0.6176765 1.0786889e-38
0.549389 -0.067988001 0.61000001 1.0879084e-38
0.56538594 -0.065266483 0.61000007 1.0879084e-38
0.57570487 -0.064775445 0.61000037 1.0879084e-38
0.58506906 -0.06541124 0.61000037 1.0879084e-38
0.59480458 -0.064652912 0.61000043 1.0879084e-38
0.605304 -0.065044232 0.61000043 1.0879084e-38
0.61495173 -0.065059535 0.61000049 1.0879084e-38
0.62522012 -0.064754419 0.61000055 1.0879084e-38
0.635171 -0.065251708 0.61000055 1.0879084e-38
0.6442852 -0.064949885 0.61000061 1.0879084e-38
0.65485156 -0.064883925 0.61000067 1.0879084e-38
0.66503805 -0.064965159 0.61000067 1.0879084e-38
0.67478335 -0.065085739 0.61000067 1.0879084e-38
0.68460584 -0.0649838 0.61000079 1.0879084e-38
0.69402355 -0.064949624 0.61000085 1.0879084e-38
0.70442539 -0.064789802 0.61074829 1.0879083e-38
0.71336383 -0.066719614 0.61000109 1.0879084e-38
0.72064012 -0.069880038 0.61000109 1.0879084e-38
0.82808512 -0.068667725 0.61000186 1.0879084e-38
0.83493412 -0.066206351 0.61000198 1.0879084e-38
0.84456474 -0.065525196 0.61000186 1.0879084e-38
0.85546553 -0.064705461 0.61000204 1.0879084e-38
0.86449116 -0.064566724 0.61000216 1.0879084e-38
0.38456279 -0.055088837 0.61978978 1.0786889e-38
0.5593788 -0.059467584 0.61000001 1.0879084e-38
0.57570487 -0.05456657 0.61000037 1.0879084e-38
0.58506924 -0.055127561 0.61000037 1.0879084e-38
0.5943405 -0.055202596 0.61000037 1.0879084e-38
0.60530394 -0.054598924 0.61000043 1.0879084e-38
0.61510843 -0.055173263 0.61000055 1.0879084e-38
0.62489545 -0.055066306 0.61000055 1.0879084e-38
0.6353184 -0.054769319 0.61000055 1.0879084e-38
0.64428514 -0.055089578 0.61000061 1.0879084e-38
0.65451229 -0.054979596 0.61000067 1.0879084e-38
0.66542238 -0.055128381 0.61000067 1.0879084e-38
0.67478347 -0.055002127 0.61000067 1.0879084e-38
0.68427378 -0.054872818 0.61000079 1.0879084e-38
0.69447482 -0.055060778 0.61047363 1.0879084e-38
0.70352089 -0.055893466 0.61094111 1.05103e-38
0.84607822 -0.057363093 0.61000198 1.0879084e-38
0.85500991 -0.055452783 0.61000204 1.0879084e-38
0.86473024 -0.054789808 0.6100021 1.0879084e-38
0.57584727 -0.044511274 0.61000025 1.0879084e-38
0.58506924 -0.044843882 0.61000037 1.0879084e-38
0.59457672 -0.045337524 0.61000043 1.0879084e-38
0.6054706 -0.044831071 0.61000043 1.0879084e-38
0.61510837 -0.044649627 0.61000055 1.0879084e-38
0.62506682 -0.045153424 0.61000055 1.0879084e-38
0.63500941 -0.045019936 0.61000055 1.0879084e-38
0.64444929 -0.044980705 0.61000061 1.0879084e-38
0.65469104 -0.044845477 0.61000067 1.0879084e-38
0.66509879 -0.045159727 0.61000067 1.0879084e-38
0.67478335 -0.0449185 0.61000067 1.0879084e-38
0.68462133 -0.045132115 0.61000073 1.0879084e-38
0.69373834 -0.045196392 0.61164391 1.0879084e-38
0.70043844 -0.048032701 0.61000097 1.0879084e-38
0.85830039 -0.047603052 0.61000204 1.0879084e-38
0.86426926 -0.045485023 0.6100021 1.0879084e-38
0.55758929 -0.033433557 0.61052042 1.0786889e-38
0.56545603 -0.035386369 0.61000019 1.0879084e-38
0.57570541 -0.034998346 0.61000031 1.0879084e-38
0.58506906 -0.034560215 0.61000037 1.0879084e-38
0.59467214 -0.03507797 0.61019927 1.0879084e-38
0.60515445 -0.035292055 0.61000049 1.0879084e-38
0.61510837 -0.035002969 0.61000049 1.0879084e-38
0.62522006 -0.034708615 0.61000055 1.0879084e-38
0.63517112 -0.034980711 0.61000055 1.0879084e-38
0.64413542 -0.035167243 0.61000061 1.0879084e-38
0.65463108 -0.035066653 0.61029041 1.0879084e-38
0.66542232 -0.035098244 0.61000073 1.0879084e-38
0.67478341 -0.034834895 0.61000067 1.0879084e-38
0.68488252 -0.034820557 0.61163747 1.0787247e-38
0.69109398 -0.037891675 0.6121704 1.0694692e-38
0.85830039 -0.032020267 0.61000204 1.0879084e-38
0.86471301 -0.035222895 0.6100021 1.0879084e-38
0.549389 -0.025493652 0.61000001 1.0879084e-38
0.56545603 -0.025259359 0.61000007 1.0879084e-38
0.57556218 -0.02548893 0.61000025 1.0879084e-38
0.58525974 -0.024672277 0.61000037 1.0879084e-38
0.59457672 -0.024618289 0.61000043 1.0879084e-38
0.60530388 -0.025003882 0.61000049 1.0879084e-38
0.61504066 -0.025253927 0.61013836 1.0879084e-38
0.62489539 -0.025027853 0.61000055 1.0879084e-38
0.63517106 -0.025187144 0.61000055 1.0879084e-38
0.64428514 -0.024612298 0.61000061 1.0879084e-38
0.65469134 -0.024972495 0.61000067 1.0879084e-38
0.66509873 -0.025134327 0.61000067 1.0879084e-38
0.67556375 -0.0242917 0.61149114 1.0879083e-38
0.68207598 -0.026371246 0.61231816 1.0787247e-38
0.84911132 -0.021374842 0.61000198 1.0879084e-38
0.85544837 -0.024367224 0.61000204 1.0879084e-38
0.86449116 -0.024933752 0.61000216 1.0879084e-38
0.3450059 -0.012586422 0.61687708 7.7444329e-39
0.37950706 -0.019416817 0.61402243 1.0786889e-38
0.549389 -0.012995317 0.61000001 1.0879084e-38
0.57570481 -0.01543253 0.61000037 1.0879084e-38
0.58487856 -0.015311047 0.61000037 1.0879084e-38
0.59474075 -0.014926778 0.61000037 1.0879084e-38
0.60530394 -0.01455857 0.61000043 1.0879084e-38
0.61510837 -0.014832682 0.61000055 1.0879084e-38
0.6250667 -0.01511109 0.61000055 1.0879084e-38
0.63517118 -0.015393582 0.61000055 1.0879084e-38
0.64428508 -0.014752001 0.61000061 1.0879084e-38
0.6546911 -0.015036 0.61000067 1.0879084e-38
0.66525322 -0.015324259 0.61000067 1.0879084e-38
0.67384517 -0.015500625 0.61237895 1.097092e-38
0.84690326 -0.014282021 0.61000198 1.0879084e-38
0.85522932 -0.014288235 0.6100021 1.0879084e-38
0.86449128 -0.014504019 0.61000216 1.0879084e-38
0.41413885 -0.00030358322 0.61983424 1.0786889e-38
0.47702229 -0.0079977931 0.61520875 1.0786889e-38
0.549389 -0.0088292081 0.61000001 1.0879084e-38
0.56540078 -0.0051590707 0.61000687 1.0879084e-38
0.57570493 -0.0052236528 0.61000031 1.0879084e-38
0.58506918 -0.0054231193 0.61000037 1.0879084e-38
0.59442979 -0.0054731774 0.61000043 1.0879084e-38
0.60530388 -0.0049836989 0.61000043 1.0879084e-38
0.61510837 -0.0051860185 0.61000049 1.0879084e-38
0.6250667 -0.0045079142 0.61000055 1.0879084e-38
0.635171 -0.0047096936 0.61000055 1.0879084e-38
0.6442852 -0.004891701 0.61000061 1.0879084e-38
0.6546911 -0.0050995061 0.61000067 1.0879084e-38
0.66549271 -0.0053354278 0.61206937 1.0878724e-38
0.67118883 -0.0072575593 0.61000085 1.0879084e-38
0.83702624 -0.0015678518 0.61000192 1.0879084e-38
0.84483069 -0.0052015246 0.61000192 1.0879084e-38
0.85522932 -0.0049569663 0.61000204 1.0879084e-38
0.86449128 -0.005117265 0.6100021 1.0879084e-38
0.549389 0.0078352401 0.61000001 1.0786889e-38
0.57570493 0.004985224 0.61000031 1.0879084e-38
0.58499533 0.0050192596 0.61030108 1.0786889e-38
0.59457684 0.004733982 0.61000043 1.0879084e-38
0.605304 0.0045911698 0.61000049 1.0879084e-38
0.61510831 0.0044606416 0.61000055 1.0879084e-38
0.62506664 0.0052116634 0.61000055 1.0879084e-38
0.63517106 0.0050838692 0.61000055 1.0879084e-38
0.64428514 0.0049685994 0.61000061 1.0879084e-38
0.65496659 0.0050408053 0.61060041 1.0786529e-38
0.66257602 0.0037251529 0.61216301 1.0878723e-38
0.83485228 0.0055335355 0.61000198 1.0879084e-38
0.84456462 0.0044949856 0.61000186 1.0879084e-38
0.85522926 0.0043743025 0.61000198 1.0879084e-38
0.86449116 0.0042694914 0.61000216 1.0879084e-38
0.4798454 0.012540683 0.615951 1.0786889e-38
0.549389 0.014501018 0.61000001 1.0786889e-38
0.56545597 0.015248684 0.61000007 1.0786889e-38
0.57570493 0.015194103 0.61000031 1.0879084e-38
0.58506918 0.015144236 0.61000037 1.0879084e-38
0.59457672 0.015093605 0.61000043 1.0879084e-38
0.605304 0.015036479 0.61000043 1.0879084e-38
0.61510831 0.01498427 0.61000055 1.0879084e-38
0.62506664 0.014931237 0.61000055 1.0879084e-38
0.63517112 0.014877432 0.61000055 1.0879084e-38
0.64450622 0.015008377 0.61034614 1.0879084e-38
0.65374494 0.014128218 0.61122942 1.097092e-38
0.82644337 0.016005382 0.61000186 1.0879084e-38
0.83403832 0.014841122 0.61000192 1.0879084e-38
0.84456462 0.01479207 0.61000186 1.0879084e-38
0.85522938 0.014742378 0.61000198 1.0879084e-38
0.86449128 0.014699223 0.61000216 1.0879084e-38
0.52810472 0.025714055 0.61069083 1.0786889e-38
0.57570487 0.025402982 0.61000019 1.0786889e-38
0.58506918 0.025427915 0.61000037 1.0786889e-38
0.59457678 0.025453232 0.61000043 1.0786889e-38
0.60529792 0.025255708 0.61049038 1.0786889e-38
0.61510843 0.025507899 0.61000055 1.0879084e-38
0.6250667 0.025534416 0.61000055 1.0879084e-38
0.63500959 0.024924409 0.61000055 1.0879084e-38
0.64481992 0.024685476 0.611884 1.1063474e-38
0.65061933 0.02244975 0.61000067 1.0879084e-38
0.81827307 0.026722802 0.6100018 1.0879084e-38
0.82513154 0.025050351 0.61000186 1.0879084e-38
0.83403814 0.025068136 0.61000192 1.0879084e-38
0.84456474 0.02508916 0.61000186 1.0879084e-38
0.85522938 0.025110457 0.6100021 1.0879084e-38
0.86449146 0.025128949 0.61000216 1.0879084e-38
0.34018889 0.039070833 0.61593604 7.8366285e-39
0.549389 0.031165466 0.61000001 1.0786889e-38
0.57570499 0.035611864 0.61000025 1.0786889e-38
0.5848785 0.035319392 0.61000037 1.0786889e-38
0.59457666 0.034949552 0.61000037 1.0786889e-38
0.60530382 0.035056662 0.61000043 1.0786889e-38
0.61517346 0.03529809 0.61017781 1.0786889e-38
0.62506676 0.03525399 0.61000055 1.0786889e-38
0.63531834 0.034658983 0.61000055 1.0786889e-38
0.6428538 0.034216195 0.61251718 1.1063474e-38
0.8076213 0.03908702 0.61000174 1.0879084e-38
0.81535846 0.035469186 0.61000168 1.0879084e-38
0.82513148 0.035218079 0.61000186 1.0879084e-38
0.83403808 0.035295147 0.61000192 1.0879084e-38
0.84456462 0.035386242 0.61000186 1.0879084e-38
0.85522926 0.035478532 0.61000198 1.0879084e-38
0.86449116 0.035558686 0.61000216 1.0879084e-38
0.50467813 0.044200152 0.61432481 1.0786889e-38
0.524391 0.048188012 0.61046892 1.0786889e-38
0.57554626 0.045162838 0.61000007 1.0786889e-38
0.58525974 0.044673521 0.61000037 1.0786889e-38
0.59457672 0.044445872 0.61000043 1.0786889e-38
0.60530406 0.04463153 0.61000055 1.0786889e-38
0.61510837 0.04480122 0.61000055 1.0786889e-38
0.62506676 0.044973571 0.61000055 1.0786889e-38
0.63534665 0.044967655 0.61039811 1.0786889e-38
0.64397198 0.045627557 0.61000061 1.0786889e-38
0.650967 0.048485052 0.61000067 1.0786889e-38
0.80562711 0.045993466 0.61039108 1.0786889e-38
0.8148737 0.045228757 0.61000162 1.0879084e-38
0.8251316 0.045385804 0.61000186 1.0879084e-38
0.83403814 0.045522168 0.61000192 1.0879084e-38
0.84456474 0.045683324 0.61000186 1.0879084e-38
0.85500997 0.045546435 0.61000204 1.0879084e-38
0.8644914 0.044945437 0.6100021 1.0879084e-38
0.33217296 0.057023369 0.61523414 1.0786889e-38
0.55612022 0.051948529 0.61000007 1.0786889e-38
0.56207043 0.052019071 0.61000007 1.0786889e-38
0.57742631 0.050680783 0.61000013 1.0786889e-38
0.58506906 0.051137112 0.61000019 1.0786889e-38
0.59457678 0.052215595 0.61000025 1.0786889e-38
0.6048044 0.052185379 0.61000025 1.0786889e-38
0.61565739 0.05285399 0.61000043 1.0786889e-38
0.62498373 0.05508348 0.61000055 1.0786889e-38
0.63517094 0.054942012 0.61000055 1.0786889e-38
0.64428514 0.055166483 0.61000061 1.0786889e-38
0.65452075 0.05527335 0.61031067 1.0602497e-38
0.66433263 0.05788501 0.61000073 1.0786889e-38
0.79795045 0.055704575 0.61000162 1.0786889e-38
0.80474609 0.055105735 0.61000162 1.0786889e-38
0.81487381 0.055328209 0.61000168 1.0786889e-38
0.82513165 0.055553533 0.6100018 1.0786889e-38
0.83403802 0.055749185 0.61000192 1.0786889e-38
0.84429789 0.055246986 0.61000192 1.0786889e-38
0.85546553 0.054783352 0.6100021 1.0786889e-38
0.86449116 0.054332197 0.61000216 1.0786889e-38
0.62804008 0.06155597 0.61000043 1.0786889e-38
0.635548 0.064197503 0.61000055 1.0786889e-38
0.64428508 0.06502679 0.61000061 1.0786889e-38
0.65453017 0.065197855 0.61000067 1.0786889e-38
0.66535389 0.06462463 0.6101917 1.0786889e-38
0.67392653 0.066106543 0.61000067 1.0786889e-38
0.68161041 0.068369299 0.61000085 1.0786889e-38
0.79523122 0.065196663 0.61000156 1.0786889e-38
0.80474609 0.065137759 0.61000162 1.0786889e-38
0.81487381 0.065427646 0.61000168 1.0786889e-38
0.82513165 0.065721266 0.6100018 1.0786889e-38
0.83380854 0.065339655 0.61000198 1.0786889e-38
0.84480333 0.06444075 0.61000186 1.0786889e-38
0.85522932 0.064509146 0.61000216 1.0786889e-38
0.86449146 0.064761922 0.61000216 1.0786889e-38
0.64514542 0.07245522 0.61000061 1.0786889e-38
0.65517682 0.074787907 0.61000067 1.0786889e-38
0.66525316 0.074800231 0.61000067 1.0786889e-38
0.67478353 0.075168177 0.61000067 1.0786889e-38
0.684255 0.074805714 0.61000079 1.0786889e-38
0.69375455 0.077202454 0.61000097 1.0786889e-38
0.70418799 0.078175962 0.61000103 1.0786889e-38
0.71427059 0.078578658 0.61000109 1.0786889e-38
0.72394615 0.07882905 0.61000109 1.0786889e-38
0.73487568 0.078444928 0.61000121 1.0786889e-38
0.74540466 0.078858443 0.61000133 1.0786889e-38
0.75474209 0.07922516 0.61000133 1.0786889e-38
0.76420641 0.079596862 0.61000139 1.0786889e-38
0.77471262 0.079351962 0.6100015 1.0786889e-38
0.78573722 0.075686038 0.61000156 1.0786889e-38
0.79475915 0.074817449 0.61000156 1.0786889e-38
0.80474627 0.075169802 0.61000162 1.0786889e-38
0.81487358 0.075527094 0.61000162 1.0786889e-38
0.82492065 0.075590491 0.61000192 1.0786889e-38
0.83425128 0.074456684 0.61000192 1.0786889e-38
0.84456462 0.074515171 0.61000186 1.0786889e-38
0.85522926 0.074877225 0.61000198 1.0786889e-38
0.8644914 0.075191654 0.61000216 1.0786889e-38
0.34178323 0.080412604 0.61610132 1.0786889e-38
0.4918102 0.087463014 0.61997122 8.3064685e-39
0.65857792 0.081488132 0.61000067 1.0786889e-38
0.66587162 0.08388152 0.61006433 1.0600697e-38
0.67478347 0.085251793 0.61000067 1.0786889e-38
0.68444735 0.08477255 0.61000079 1.0786889e-38
0.69408685 0.08500623 0.61000085 1.0786889e-38
0.70418811 0.084729835 0.61000091 1.0786889e-38
0.71427053 0.0851795 0.61000097 1.0786889e-38
0.72468305 0.085371785 0.61000115 1.0786889e-38
0.73470503 0.084925748 0.61000133 1.0786889e-38
0.7454046 0.084640659 0.61000144 1.0786889e-38
0.75474203 0.08504466 0.61000144 1.0786889e-38
0.76420641 0.085454173 0.6100015 1.0786889e-38
0.77523667 0.085180506 0.6100015 1.0786889e-38
0.78489774 0.084369443 0.61000156 1.0786889e-38
0.79475921 0.084783003 0.61000156 1.0786889e-38
0.80474609 0.085201822 0.61000168 1.0786889e-38
0.8148737 0.085626543 0.61000168 1.0786889e-38
0.82513183 0.085038558 0.61000192 1.0786889e-38
0.83403802 0.084384829 0.61000192 1.0786889e-38
0.84456456 0.084812246 0.61000186 1.0786889e-38
0.85522926 0.085245281 0.61000198 1.0786889e-38
0.86449146 0.085621379 0.61000216 1.0786889e-38
0.51327258 0.096804321 0.61833131 8.4901479e-39
0.67646199 0.091570392 0.61000085 1.0786889e-38
0.68494797 0.094411276 0.61000085 1.0786889e-38
0.69442433 0.095185257 0.61000085 1.0786889e-38
0.70418805 0.095028751 0.61000085 1.0786889e-38
0.71427065 0.094609275 0.61000097 1.0786889e-38
0.72442085 0.095025614 0.6104188 1.0786889e-38
0.73506254 0.095400892 0.61000127 1.0786889e-38
0.74516356 0.094790332 0.61000133 1.0786889e-38
0.75474197 0.094743833 0.61000144 1.0786889e-38
0.76420653 0.095216349 0.6100015 1.0786889e-38
0.77536875 0.095491827 0.6100015 1.0786889e-38
0.78489769 0.094269365 0.61000156 1.0786889e-38
0.79475915 0.094748549 0.61000156 1.0786889e-38
0.80474627 0.09523385 0.61000168 1.0786889e-38
0.8148737 0.095725983 0.61000168 1.0786889e-38
0.82534224 0.094490819 0.61000186 1.0786889e-38
0.83403814 0.094611838 0.61000186 1.0786889e-38
0.84456462 0.095109336 0.61000186 1.0786889e-38
0.85522932 0.095613375 0.61000198 1.0786889e-38
0.86449128 0.095008135 0.6100021 1.0786889e-38
0.69548172 0.10295258 0.61000097 1.0786889e-38
0.70438546 0.10514278 0.61000091 1.0786889e-38
0.71427077 0.10498203 0.61000091 1.0786889e-38
0.72449869 0.10463139 0.61000121 1.0786889e-38
0.73487568 0.10523234 0.61000127 1.0786889e-38
0.74564558 0.10532944 0.61000133 1.0786889e-38
0.75474197 0.10444301 0.61000144 1.0786889e-38
0.76420641 0.10497852 0.61000144 1.0786889e-38
0.77517122 0.10559891 0.61000156 1.0786889e-38
0.78472298 0.10453016 0.61000156 1.0786889e-38
0.79475915 0.10471412 0.61000156 1.0786889e-38
0.80474609 0.10526588 0.61000162 1.0786889e-38
0.81464356 0.10559949 0.61000168 1.0786889e-38
0.82513154 0.10435864 0.6100018 1.0786889e-38
0.83403808 0.10483885 0.61000192 1.0786889e-38
0.84456474 0.10540643 0.61000186 1.0786889e-38
0.8549934 0.10533007 0.61000204 1.0786889e-38
0.86449128 0.1043949 0.61000216 1.0786889e-38
0.37213847 0.11136934 0.61353993 1.0786889e-38
0.49035424 0.11235387 0.61096317 1.0694689e-38
0.55469888 0.11850613 0.61000007 1.0786889e-38
0.70710927 0.11175585 0.61000103 1.0786889e-38
0.71427059 0.11346882 0.61000109 1.0786889e-38
0.72449875 0.11412925 0.61000103 1.0786889e-38
0.73487568 0.11479928 0.61000127 1.0786889e-38
0.7454046 0.11547913 0.61000133 1.0786889e-38
0.75458401 0.1148162 0.61000144 1.0786889e-38
0.76420647 0.11474068 0.6100015 1.0786889e-38
0.77517122 0.11543407 0.61000156 1.0786889e-38
0.78489769 0.11472792 0.61000156 1.0786889e-38
0.79475915 0.11467965 0.61000162 1.0786889e-38
0.80474621 0.11529791 0.61000168 1.0786889e-38
0.81479752 0.11517427 0.61000168 1.0786889e-38
0.8251316 0.11452637 0.6100018 1.0786889e-38
0.83403802 0.11506588 0.61000192 1.0786889e-38
0.8443253 0.1154716 0.61000186 1.0786889e-38
0.85544842 0.11458454 0.61000204 1.0786889e-38
0.86449116 0.11482462 0.61000216 1.0786889e-38
0.35714298 0.1229818 0.61459786 7.8366285e-39
0.57513154 0.12678282 0.61000001 1.0786889e-38
0.58472002 0.12795094 0.61000019 1.0786889e-38
0.59305537 0.12880036 0.61000019 1.0786889e-38
0.60746527 0.12880549 0.61000037 1.0786889e-38
0.61291271 0.12968746 0.61000037 1.0786889e-38
0.72836661 0.12009315 0.61000115 1.0786889e-38
0.73618156 0.12377698 0.61000115 1.0786889e-38
0.74540472 0.12511614 0.61000133 1.0786889e-38
0.75490993 0.12542875 0.61000144 1.0786889e-38
0.76420641 0.12450287 0.61000144 1.0786889e-38
0.77517134 0.12526922 0.61000156 1.0786889e-38
0.78489745 0.1249579 0.61000156 1.0786889e-38
0.79475921 0.12464522 0.61000156 1.0786889e-38
0.80474609 0.12532994 0.61000162 1.0786889e-38
0.81487381 0.12501243 0.61000168 1.0786889e-38
0.8251316 0.1246941 0.6100018 1.0786889e-38
0.83403808 0.12529288 0.61000192 1.0786889e-38
0.84456527 0.12496923 0.61000186 1.0786889e-38
0.85522938 0.12464397 0.61000198 1.0786889e-38
0.86449128 0.12525435 0.61000216 1.0786889e-38
0.5757764 0.13480128 0.61000019 1.0786889e-38
0.58506912 0.13512048 0.61000037 1.0786889e-38
0.59465307 0.13491274 0.61000043 1.0786889e-38
0.60554981 0.13513385 0.61055803 1.0602497e-38
0.61304462 0.13447152 0.61053377 1.0325911e-38
0.73880005 0.13232017 0.61000127 1.0786889e-38
0.74561369 0.13456711 0.61000133 1.0786889e-38
0.75474209 0.13548036 0.61000144 1.0786889e-38
0.76401228 0.13452832 0.6100015 1.0786889e-38
0.77517128 0.1351044 0.6100015 1.0786889e-38
0.78489763 0.13518773 0.61000156 1.0786889e-38
0.79456556 0.13453075 0.61012626 1.0786889e-38
0.80474609 0.13536197 0.61000168 1.0786889e-38
0.81495064 0.13485201 0.61000162 1.0786889e-38
0.82513165 0.13486181 0.6100018 1.0786889e-38
0.83403802 0.13551991 0.61000192 1.0786889e-38
0.84480333 0.13447173 0.61000186 1.0786889e-38
0.85519612 0.13511994 0.61016464 1.0786889e-38
0.86426938 0.13536939 0.6100021 1.0786889e-38
0.57584727 0.14466642 0.61000019 1.0786889e-38
0.58493221 0.14520428 0.61000037 1.0786889e-38
0.59472322 0.14475112 0.61000043 1.0786889e-38
0.60507202 0.1452693 0.61000049 1.0786889e-38
0.61316574 0.14493224 0.61000049 1.0786889e-38
0.7473191 0.1428376 0.61000127 1.0786889e-38
0.75474197 0.14517953 0.61000144 1.0786889e-38
0.76414144 0.14476405 0.61000144 1.0786889e-38
0.77517122 0.14493957 0.6100015 1.0786889e-38
0.78507274 0.14539148 0.61000156 1.0786889e-38
0.79475915 0.1445763 0.61000162 1.0786889e-38
0.80474609 0.14539401 0.61000168 1.0786889e-38
0.81487381 0.14470686 0.61000168 1.0786889e-38
0.82513165 0.14502954 0.61000186 1.0786889e-38
0.83382463 0.14543697 0.61000198 1.0786889e-38
0.84448516 0.14455375 0.61024874 1.0786889e-38
0.85522932 0.14538015 0.61000198 1.0786889e-38
0.86473042 0.14468768 0.6100021 1.0786889e-38
0.49822029 0.15731442 0.61396152 1.0786889e-38
0.57570493 0.15471545 0.61000019 1.0786889e-38
0.5850237 0.15504846 0.61000037 1.0786889e-38
0.59457672 0.15494855 0.61000043 1.0786889e-38
0.60538161 0.15499759 0.61000055 1.0786889e-38
0.61496496 0.15509371 0.61000055 1.0786889e-38
0.62466216 0.15779246 0.61000049 1.0786889e-38
0.63290787 0.15887792 0.61000049 1.0786889e-38
0.75515503 0.15476742 0.61000144 1.0786889e-38
0.76427096 0.15500239 0.61000144 1.0786889e-38
0.77517122 0.15477474 0.6100015 1.0786889e-38
0.78489769 0.15564877 0.61000156 1.0786889e-38
0.79475915 0.15454188 0.61000156 1.0786889e-38
0.80474627 0.15542606 0.61000162 1.0786889e-38
0.81487381 0.1548063 0.61000168 1.0786889e-38
0.8251316 0.15519728 0.6100018 1.0786889e-38
0.83403838 0.15494981 0.61000198 1.0786889e-38
0.84456462 0.15483245 0.61000186 1.0786889e-38
0.85501003 0.15543258 0.61000204 1.0786889e-38
0.8644914 0.1544576 0.61000216 1.0786889e-38
0.51661623 0.16590042 0.6146884 1.0786889e-38
0.57570487 0.16492429 0.61000025 1.0786889e-38
0.58511478 0.16489479 0.61000037 1.0786889e-38
0.59442985 0.16514258 0.61000043 1.0786889e-38
0.6054529 0.16491847 0.61000043 1.0786889e-38
0.61510873 0.16494483 0.61000055 1.0786889e-38
0.62491268 0.16497344 0.61000055 1.0786889e-38
0.63537687 0.16487782 0.61000055 1.0786889e-38
0.64364791 0.16575328 0.61000055 1.0786889e-38
0.65435779 0.16752794 0.61000061 1.0786889e-38
0.66525316 0.16856612 0.61000073 1.0786889e-38
0.7252723 0.16891567 0.61000109 1.0786889e-38
0.73531175 0.16756578 0.61000121 1.0786889e-38
0.74614125 0.16587687 0.61000133 1.0786889e-38
0.75474197 0.16457789 0.61000144 1.0786889e-38
0.76442987 0.16537701 0.61022049 1.0786889e-38
0.77517116 0.16460988 0.6100015 1.0786889e-38
0.78489763 0.1655487 0.61000156 1.0786889e-38
0.79475915 0.16450742 0.61000162 1.0786889e-38
0.80474633 0.1654581 0.61000162 1.0786889e-38
0.81510329 0.16463578 0.61000162 1.0786889e-38
0.82513154 0.16536501 0.6100018 1.0786889e-38
0.83425134 0.1644669 0.61000198 1.0786889e-38
0.84456474 0.16512951 0.61000186 1.0786889e-38
0.85522974 0.16507804 0.61000204 1.0786889e-38
0.86449134 0.16488732 0.61000216 1.0786889e-38
0.51650852 0.1796038 0.61172998 1.0786889e-38
0.55617249 0.17481774 0.61026007 1.0786889e-38
0.56520683 0.17522186 0.61018401 1.0786889e-38
0.57570487 0.17513321 0.61000007 1.0786889e-38
0.58520579 0.17474329 0.61000037 1.0786889e-38
0.59450352 0.17515165 0.61000043 1.0786889e-38
0.60515451 0.17502986 0.61000055 1.0786889e-38
0.61525148 0.1747994 0.61000055 1.0786889e-38
0.62498742 0.17504112 0.61000055 1.0786889e-38
0.63517118 0.17513575 0.61000055 1.0786889e-38
0.64449382 0.17481683 0.61000055 1.0786889e-38
0.65443242 0.17503205 0.61000061 1.0786889e-38
0.6652531 0.17493857 0.61000067 1.0786889e-38
0.67478347 0.17508765 0.61000067 1.0786889e-38
0.6842038 0.1768727 0.61000079 1.0786889e-38
0.69424802 0.17725141 0.61000097 1.0786889e-38
0.70447719 0.17665774 0.61000103 1.0786889e-38
0.71465135 0.17565109 0.61000097 1.0786889e-38
0.72449875 0.17491555 0.61000121 1.0786889e-38
0.73487526 0.1750697 0.61000133 1.0786889e-38
0.74549425 0.17499173 0.61007321 1.0786889e-38
0.75457418 0.1746226 0.61000144 1.0786889e-38
0.76420647 0.17526618 0.6100015 1.0786889e-38
0.77497429 0.17470495 0.6100015 1.0786889e-38
0.7848978 0.17544861 0.61000156 1.0786889e-38
0.79475915 0.17447297 0.61000162 1.0786889e-38
0.80474633 0.17549011 0.61000162 1.0786889e-38
0.81487381 0.17450169 0.61000168 1.0786889e-38
0.82513154 0.17553274 0.6100018 1.0786889e-38
0.83403808 0.17438258 0.61000192 1.0786889e-38
0.84432542 0.17518549 0.61000186 1.0786889e-38
0.85544837 0.17472784 0.61000204 1.0786889e-38
0.86449128 0.17531705 0.61000216 1.0786889e-38
0.35483861 0.18766567 0.61586469 1.0694693e-38
0.57556218 0.1851767 0.61000007 1.0786889e-38
0.58506912 0.18482493 0.61000037 1.0786889e-38
0.59465307 0.18498722 0.61000043 1.0786889e-38
0.60522956 0.18512224 0.61000043 1.0786889e-38
0.61510831 0.18511629 0.61000055 1.0786889e-38
0.62514323 0.18498577 0.61030459 1.0786889e-38
0.63500965 0.18516336 0.61000055 1.0786889e-38
0.64413536 0.18492964 0.61000055 1.0786889e-38
0.65494061 0.18494889 0.61000061 1.0786889e-38
0.66508454 0.18519169 0.61000067 1.0786889e-38
0.67462683 0.18495288 0.61000067 1.0786889e-38
0.68462127 0.18514924 0.61000073 1.0786889e-38
0.69407177 0.18493302 0.61000079 1.0786889e-38
0.70418763 0.18490909 0.61000085 1.0786889e-38
0.71427071 0.1851351 0.61000097 1.0786889e-38
0.72426468 0.18490385 0.61000115 1.0786889e-38
0.73506254 0.18534175 0.61000127 1.0786889e-38
0.7454046 0.18486564 0.61000133 1.0786889e-38
0.75474185 0.18494502 0.61000144 1.0786889e-38
0.76420653 0.18502834 0.61000144 1.0786889e-38
0.7751714 0.18477061 0.6100015 1.0786889e-38
0.78489774 0.18534853 0.61000156 1.0786889e-38
0.79455686 0.1847005 0.61000156 1.0786889e-38
0.80474609 0.18552215 0.61000162 1.0786889e-38
0.81487381 0.1846011 0.61000168 1.0786889e-38
0.82492059 0.18538678 0.61000192 1.0786889e-38
0.83403808 0.18460959 0.61000192 1.0786889e-38
0.84448534 0.18495475 0.61000186 1.0786889e-38
0.85522932 0.18477884 0.61000198 1.0786889e-38
0.86426926 0.18542501 0.6100021 1.0786889e-38
0.39295283 0.19411656 0.61625361 1.0694693e-38
0.44848585 0.19905344 0.61994791 6.7295005e-39
0.57563388 0.19504121 0.61000013 1.0786889e-38
0.58506912 0.19510861 0.61000037 1.0786889e-38
0.59472328 0.1948283 0.61000043 1.0786889e-38
0.60538161 0.19504036 0.61000049 1.0786889e-38
0.61490881 0.19521432 0.61000055 1.0786889e-38
0.62491274 0.19501226 0.61000055 1.0786889e-38
0.6353184 0.19493501 0.61000055 1.0786889e-38
0.64428562 0.19500227 0.61000055 1.0786889e-38
0.65444148 0.19508168 0.61000061 1.0786889e-38
0.6654073 0.19518311 0.61000067 1.0786889e-38
0.67495507 0.19501387 0.61000073 1.0786889e-38
0.68427378 0.19486588 0.61000073 1.0786889e-38
0.69424754 0.19491357 0.61000085 1.0786889e-38
0.70436698 0.19496301 0.61000091 1.0786889e-38
0.71408951 0.19481151 0.61000097 1.0786889e-38
0.72455978 0.19509315 0.61000127 1.0786889e-38
0.73487568 0.19516149 0.61000127 1.0786889e-38
0.74521548 0.19475472 0.61000133 1.0786889e-38
0.75491005 0.19527087 0.61000144 1.0786889e-38
0.76420653 0.19479053 0.6100015 1.0786889e-38
0.77510524 0.19485547 0.6100015 1.0786889e-38
0.78489763 0.19524843 0.61000156 1.0786889e-38
0.79475915 0.19490094 0.61000156 1.0786889e-38
0.80474645 0.1955542 0.61000162 1.0786889e-38
0.8148737 0.19470055 0.61000162 1.0786889e-38
0.82496238 0.19497308 0.6105938 1.0786889e-38
0.83403802 0.1948366 0.61000192 1.0786889e-38
0.84456462 0.19498906 0.61000186 1.0786889e-38
0.85522932 0.1951469 0.61000198 1.0786889e-38
0.86449158 0.19513211 0.6100021 1.0786889e-38
0.3984279 0.20555887 0.61484617 1.0602497e-38
0.44422245 0.20485283 0.61719841 4.425365e-39
0.57570517 0.20490742 0.61000019 1.0786889e-38
0.58493221 0.20518601 0.61000037 1.0786889e-38
0.5945769 0.20502006 0.61000043 1.0786889e-38
0.60545284 0.20496337 0.61000043 1.0786889e-38
