# .PCD v0.7 - Point Cloud Data file format
VERSION 0.7
FIELDS x y z rgb
SIZE 4 4 4 4
TYPE F F F F
COUNT 1 1 1 1
WIDTH 1012
HEIGHT 1
VIEWPOINT 0 0 0 1 0 0 0
POINTS 1012
DATA ascii
0.60507196 -0.07516066 0.61000043 1.0879084e-38
0.61525136 -0.074667275 0.61000055 1.0879084e-38
0.62506658 -0.075195789 0.61000055 1.0879084e-38
0.63517082 -0.075045332 0.61000055 1.0879084e-38
0.64428514 -0.074810244 0.61000061 1.0879084e-38
0.65443242 -0.075037047 0.61000067 1.0879084e-38
0.66546828 -0.074925214 0.61000067 1.0879084e-38
0.67462671 -0.074958555 0.61000067 1.0879084e-38
0.68444735 -0.074928172 0.61000073 1.0879084e-38
0.69447225 -0.075120866 0.61000085 1.0879084e-38
0.7039606 -0.07492958 0.61000085 1.0879084e-38
0.71427065 -0.075126685 0.61000097 1.0879084e-38
0.72443724 -0.07555262 0.61000127 1.0879084e-38
0.73487568 -0.075582735 0.61000121 1.0879084e-38
0.74540454 -0.076297611 0.61000133 1.0879084e-38
0.75449771 -0.076650009 0.61000139 1.0879084e-38
0.76366234 -0.076952621 0.61000144 1.0879084e-38
0.77457863 -0.07841935 0.6100015 1.0879084e-38
0.78349769 -0.0798731 0.61000156 1.0879084e-38
0.81574851 -0.078443453 0.6100018 1.0879084e-38
0.82562357 -0.075470887 0.61000192 1.0879084e-38
0.83403796 -0.075156681 0.61000192 1.0879084e-38
0.84422827 -0.075342529 0.61000186 1.0879084e-38
0.8552568 -0.074429512 0.61031288 1.0879084e-38
0.8644914 -0.074996509 0.61000216 1.0879084e-38
0.549389 -0.067988038 0.61000001 1.0879084e-38
0.56538594 -0.065266535 0.61000019 1.0879084e-38
0.57570493 -0.064775482 0.61000037 1.0879084e-38
0.58506918 -0.065411285 0.61000037 1.0879084e-38
0.59480464 -0.06465295 0.61000043 1.0879084e-38
0.60530388 -0.065044299 0.61000049 1.0879084e-38
0.61495167 -0.06505958 0.61000049 1.0879084e-38
0.62522018 -0.064754456 0.61000055 1.0879084e-38
0.63517112 -0.065251775 0.61000055 1.0879084e-38
0.64428514 -0.064949937 0.61000061 1.0879084e-38
0.65485168 -0.064883985 0.61000067 1.0879084e-38
0.66503805 -0.064965218 0.61000067 1.0879084e-38
0.67478335 -0.065085791 0.61000073 1.0879084e-38
0.68460578 -0.064983867 0.61000079 1.0879084e-38
0.69402367 -0.064949691 0.61000085 1.0879084e-38
0.70442539 -0.064789861 0.61074829 1.0879083e-38
0.71336383 -0.066719674 0.61000109 1.0879084e-38
0.72064012 -0.069880098 0.61000109 1.0879084e-38
0.82808512 -0.068667784 0.61000186 1.0879084e-38
0.83493412 -0.066206403 0.61000198 1.0879084e-38
0.84456462 -0.065525256 0.61000186 1.0879084e-38
0.85546553 -0.064705536 0.61000204 1.0879084e-38
0.8644914 -0.064566784 0.61000216 1.0879084e-38
0.35415685 -0.054194935 0.61535329 1.0786889e-38
0.5593788 -0.059467621 0.61000001 1.0879084e-38
0.56560594 -0.055742081 0.61000007 1.0879084e-38
0.57570475 -0.054566611 0.61000037 1.0879084e-38
0.58506906 -0.055127606 0.61000037 1.0879084e-38
0.5943405 -0.055202652 0.61000037 1.0879084e-38
0.60530388 -0.054598976 0.61000049 1.0879084e-38
0.61510837 -0.055173304 0.61000055 1.0879084e-38
0.62489551 -0.055066355 0.61000055 1.0879084e-38
0.63531846 -0.054769374 0.61000055 1.0879084e-38
0.6442852 -0.055089641 0.61000061 1.0879084e-38
0.65451235 -0.05497966 0.61000067 1.0879084e-38
0.6654225 -0.055128437 0.61000067 1.0879084e-38
0.67478341 -0.055002183 0.61000067 1.0879084e-38
0.68427378 -0.054872889 0.61000073 1.0879084e-38
0.69447476 -0.055060834 0.61047363 1.0879084e-38
0.70353693 -0.055750791 0.61133826 1.05103e-38
0.84607828 -0.05736316 0.61000198 1.0879084e-38
0.85500991 -0.055452842 0.61000204 1.0879084e-38
0.86473024 -0.054789867 0.6100021 1.0879084e-38
0.56651574 -0.04509392 0.61000013 1.0879084e-38
0.57584727 -0.044511322 0.61000037 1.0879084e-38
0.58506918 -0.044843931 0.61000037 1.0879084e-38
0.59457684 -0.045337576 0.61000043 1.0879084e-38
0.6054706 -0.044831112 0.61000049 1.0879084e-38
0.61510837 -0.044649675 0.61000055 1.0879084e-38
0.62506664 -0.045153465 0.61000055 1.0879084e-38
0.63500947 -0.045019984 0.61000055 1.0879084e-38
0.64444923 -0.044980761 0.61000061 1.0879084e-38
0.65469116 -0.04484554 0.61000067 1.0879084e-38
0.66509879 -0.045159787 0.61000067 1.0879084e-38
0.67478347 -0.044918567 0.61000073 1.0879084e-38
0.68462133 -0.045132171 0.61000079 1.0879084e-38
0.6937381 -0.045196436 0.61164391 1.0879084e-38
0.70043844 -0.048032761 0.61000097 1.0879084e-38
0.85830039 -0.047603112 0.61000204 1.0879084e-38
0.86426938 -0.045485087 0.6100021 1.0879084e-38
0.45502543 -0.035374321 0.61088562 6.4587612e-39
0.55797261 -0.0332033 0.61000007 1.0879084e-38
0.56545597 -0.03538641 0.61000007 1.0879084e-38
0.57570553 -0.034998383 0.61000037 1.0879084e-38
0.58506912 -0.034560252 0.61000037 1.0879084e-38
0.59457666 -0.034977954 0.61000043 1.0879084e-38
0.60515451 -0.035292104 0.61000043 1.0879084e-38
0.61510837 -0.035003014 0.61000049 1.0879084e-38
0.62522012 -0.034708664 0.61000055 1.0879084e-38
0.635171 -0.034980755 0.61000055 1.0879084e-38
0.64413542 -0.035167288 0.61000061 1.0879084e-38
0.6546911 -0.03490904 0.61000067 1.0879084e-38
0.66542244 -0.035098292 0.61000073 1.0879084e-38
0.67478347 -0.034834947 0.61000067 1.0879084e-38
0.6848824 -0.034820609 0.61163753 1.0787247e-38
0.69109392 -0.037891719 0.61217046 1.0694692e-38
0.85830039 -0.032020334 0.61000204 1.0879084e-38
0.86471301 -0.035222959 0.6100021 1.0879084e-38
0.40820846 -0.021146577 0.61042339 1.0786889e-38
0.549389 -0.025493696 0.61000001 1.0879084e-38
0.56545597 -0.025259405 0.61000019 1.0879084e-38
0.57556212 -0.025488978 0.61000025 1.0879084e-38
0.58525968 -0.024672328 0.61000037 1.0879084e-38
0.59457678 -0.024618333 0.61000043 1.0879084e-38
0.60530388 -0.025003923 0.61000055 1.0879084e-38
0.61510831 -0.025356358 0.61000055 1.0879084e-38
0.62489551 -0.025027899 0.61000055 1.0879084e-38
0.63517106 -0.025187194 0.61000055 1.0879084e-38
0.64428526 -0.024612347 0.61000061 1.0879084e-38
0.65469128 -0.024972547 0.61000067 1.0879084e-38
0.66509879 -0.025134377 0.61000067 1.0879084e-38
0.67556357 -0.024291746 0.61149126 1.0879083e-38
0.68207586 -0.026371291 0.61231834 1.0787247e-38
0.84911132 -0.021374909 0.61000198 1.0879084e-38
0.85544837 -0.024367291 0.6100021 1.0879084e-38
0.86449128 -0.024933813 0.61000216 1.0879084e-38
0.549389 -0.012995361 0.61000001 1.0879084e-38
0.555323 -0.014853055 0.6102773 1.0879084e-38
0.56545585 -0.015132394 0.61000019 1.0879084e-38
0.57570493 -0.015432572 0.61000037 1.0879084e-38
0.58487844 -0.015311092 0.61000037 1.0879084e-38
0.59474075 -0.014926823 0.61000037 1.0879084e-38
0.60530394 -0.014558611 0.61000049 1.0879084e-38
0.61510837 -0.014832727 0.61000055 1.0879084e-38
0.6250667 -0.015111137 0.61000055 1.0879084e-38
0.635171 -0.015393629 0.61000055 1.0879084e-38
0.64428514 -0.014752048 0.61000061 1.0879084e-38
0.65469116 -0.01503605 0.61000067 1.0879084e-38
0.66525322 -0.015324308 0.61000073 1.0879084e-38
0.67384505 -0.01550067 0.61237901 1.097092e-38
0.84690326 -0.014282089 0.61000198 1.0879084e-38
0.85522926 -0.014288301 0.61000198 1.0879084e-38
0.86449116 -0.014504085 0.61000216 1.0879084e-38
0.35102722 -0.0001455117 0.61580205 1.0786889e-38
0.549389 -0.0088292491 0.61000001 1.0879084e-38
0.56545603 -0.0050053815 0.61000007 1.0879084e-38
0.57570493 -0.0052236966 0.61000031 1.0879084e-38
0.58506912 -0.0054231645 0.61000037 1.0879084e-38
0.59442973 -0.0054732235 0.61000043 1.0879084e-38
0.60518837 -0.0050198138 0.6101622 1.0879084e-38
0.61510837 -0.005186067 0.61000049 1.0879084e-38
0.62506658 -0.0045079612 0.61000055 1.0879084e-38
0.63517112 -0.0047097425 0.61000055 1.0879084e-38
0.64444155 -0.0049552005 0.61022437 1.0879084e-38
0.65469116 -0.0050995559 0.61000067 1.0879084e-38
0.66549253 -0.0053354744 0.61206955 1.0878724e-38
0.67118883 -0.0072576096 0.61000085 1.0879084e-38
0.83702624 -0.0015679151 0.61000192 1.0879084e-38
0.84483069 -0.0052015893 0.61000192 1.0879084e-38
0.85522932 -0.0049570319 0.6100021 1.0879084e-38
0.86449128 -0.0051173293 0.6100021 1.0879084e-38
0.37264806 0.00079957489 0.61171055 1.0786889e-38
0.39349499 0.0088053672 0.61144686 1.0786889e-38
0.49962342 1.6763806e-08 0.61076552 1.0879084e-38
0.54590142 0.0073939157 0.61112881 1.0786889e-38
0.57570499 0.0049851821 0.61000031 1.0879084e-38
0.58506912 0.0048605138 0.61000037 1.0879084e-38
0.5945769 0.0047339359 0.61000043 1.0879084e-38
0.60530394 0.0045911237 0.61000049 1.0879084e-38
0.61510843 0.0044605937 0.61000055 1.0879084e-38
0.62506658 0.005211615 0.61000055 1.0879084e-38
0.63517106 0.0050838208 0.61000055 1.0879084e-38
0.64428514 0.0049685501 0.61000061 1.0879084e-38
0.65496659 0.005040756 0.61060041 1.0786529e-38
0.6625759 0.0037251064 0.61216319 1.0878723e-38
0.8348524 0.0055334712 0.61000198 1.0879084e-38
0.84456474 0.0044949213 0.61000186 1.0879084e-38
0.85522932 0.0043742373 0.61000198 1.0879084e-38
0.86449116 0.0042694262 0.61000216 1.0879084e-38
0.549389 0.014500977 0.61000001 1.0786889e-38
0.56545603 0.015248638 0.61000001 1.0786889e-38
0.57570493 0.015194058 0.61000019 1.0879084e-38
0.5850544 0.01510381 0.61003876 1.0879084e-38
0.59457684 0.015093562 0.61000043 1.0879084e-38
0.60530388 0.015036434 0.61000049 1.0879084e-38
0.61510837 0.014984223 0.61000055 1.0879084e-38
0.6250667 0.014931195 0.61000055 1.0879084e-38
0.63517112 0.014877384 0.61000055 1.0879084e-38
0.64450628 0.015008328 0.61034614 1.0879084e-38
0.65374482 0.014128169 0.61122954 1.097092e-38
0.82644343 0.016005317 0.61000186 1.0879084e-38
0.83403814 0.014841058 0.61000192 1.0879084e-38
0.84456462 0.014792008 0.61000186 1.0879084e-38
0.85503387 0.014615489 0.61006892 1.0879084e-38
0.8644914 0.014699155 0.61000216 1.0879084e-38
0.57570493 0.025402935 0.61000025 1.0786889e-38
0.58506918 0.025427869 0.61000037 1.0786889e-38
0.59457684 0.025453188 0.61000043 1.0786889e-38
0.60530394 0.025481744 0.61000043 1.0879084e-38
0.61510837 0.025507851 0.61000055 1.0879084e-38
0.62506676 0.025534367 0.61000055 1.0879084e-38
0.63500965 0.024924355 0.61000055 1.0879084e-38
0.64481974 0.024685426 0.61188406 1.1063474e-38
0.65061933 0.0224497 0.61000067 1.0879084e-38
0.81827307 0.026722739 0.6100018 1.0879084e-38
0.82513154 0.025050284 0.61000186 1.0879084e-38
0.83403814 0.025068073 0.61000192 1.0879084e-38
0.84456474 0.025089091 0.61000186 1.0879084e-38
0.85522926 0.02511039 0.61000198 1.0879084e-38
0.8644914 0.025128882 0.61000216 1.0879084e-38
0.47574091 0.039323147 0.61182845 1.0786889e-38
0.549389 0.031165425 0.61000001 1.0786889e-38
0.56545597 0.035502657 0.61000001 1.0786889e-38
0.57570493 0.035611816 0.61000019 1.0786889e-38
0.5848785 0.035319351 0.61000037 1.0786889e-38
0.59457678 0.034949504 0.61000037 1.0786889e-38
0.60530394 0.035056613 0.61000043 1.0786889e-38
0.61495358 0.034980044 0.61040115 1.0786889e-38
0.62506676 0.035253949 0.61000055 1.0786889e-38
0.63531852 0.034658939 0.61000055 1.0786889e-38
0.64285368 0.034216143 0.6125173 1.1063474e-38
0.8076213 0.039086957 0.61000174 1.0879084e-38
0.8153584 0.03546913 0.61000168 1.0879084e-38
0.82513148 0.035218015 0.61000186 1.0879084e-38
0.83403808 0.035295088 0.61000192 1.0879084e-38
0.84456474 0.035386175 0.61000186 1.0879084e-38
0.85522926 0.035478469 0.61000198 1.0879084e-38
0.86449128 0.035558615 0.61000216 1.0879084e-38
0.45557007 0.046564989 0.61484617 1.0786889e-38
0.5040977 0.041677885 0.61014682 1.0786889e-38
0.56531549 0.045481082 0.61000001 1.0786889e-38
0.57554632 0.045162793 0.61000001 1.0786889e-38
0.5852598 0.044673476 0.61000037 1.0786889e-38
0.59457684 0.044445824 0.61000043 1.0786889e-38
0.60530388 0.044631481 0.61000043 1.0786889e-38
0.61510837 0.044801172 0.61000055 1.0786889e-38
0.62506658 0.044973526 0.61000055 1.0786889e-38
0.63534677 0.044967614 0.61039811 1.0786889e-38
0.64397198 0.045627508 0.61000061 1.0786889e-38
0.650967 0.048485003 0.61000067 1.0786889e-38
0.66266364 0.048563957 0.61542571 1.0786889e-38
0.80552965 0.045996591 0.61000168 1.0879084e-38
0.8148737 0.045228694 0.61000162 1.0879084e-38
0.82537585 0.045343231 0.61043066 1.0786889e-38
0.83403802 0.045522101 0.61000192 1.0879084e-38
0.84456456 0.045683261 0.61000186 1.0879084e-38
0.85500997 0.04554636 0.61000204 1.0879084e-38
0.86449128 0.04494537 0.6100021 1.0879084e-38
0.42413828 0.050901305 0.61116922 1.0786889e-38
0.4756366 0.055490803 0.61364448 1.0786889e-38
0.55612022 0.051948488 0.61000007 1.0786889e-38
0.56207043 0.052019019 0.61000007 1.0786889e-38
0.57742631 0.050680742 0.61000013 1.0786889e-38
0.58506912 0.051137067 0.61000019 1.0786889e-38
0.59457678 0.052215543 0.61000025 1.0786889e-38
0.60480434 0.052185342 0.61000031 1.0786889e-38
0.61565739 0.052853942 0.61000043 1.0786889e-38
0.62498367 0.055083435 0.61000055 1.0786889e-38
0.63515615 0.054770015 0.6102317 1.0601057e-38
0.64428508 0.055166434 0.61000061 1.0786889e-38
0.65452075 0.055273298 0.61031073 1.0602497e-38
0.66463006 0.057316482 0.61060345 1.0694693e-38
0.79795051 0.055704508 0.61000162 1.0786889e-38
0.80474627 0.055105668 0.61000168 1.0786889e-38
0.81487381 0.055328142 0.61000168 1.0786889e-38
0.8251316 0.055553477 0.61000174 1.0786889e-38
0.83403814 0.055749118 0.61000192 1.0786889e-38
0.84429789 0.055246919 0.61000192 1.0786889e-38
0.85546547 0.054783281 0.61000204 1.0786889e-38
0.86439312 0.05429662 0.61035144 1.0786889e-38
0.62804008 0.061555922 0.61000055 1.0786889e-38
0.63554782 0.064197451 0.61000055 1.0786889e-38
0.64428514 0.065026723 0.61000061 1.0786889e-38
0.65453017 0.065197803 0.61000067 1.0786889e-38
0.66525322 0.064786337 0.61000067 1.0786889e-38
0.67392665 0.066106491 0.61000067 1.0786889e-38
0.68161041 0.068369247 0.61000085 1.0786889e-38
0.79523122 0.065196596 0.61000156 1.0786889e-38
0.80474609 0.065137699 0.61000162 1.0786889e-38
0.8148737 0.065427586 0.61000162 1.0786889e-38
0.82513165 0.065721199 0.61000186 1.0786889e-38
0.8338086 0.065339595 0.61000198 1.0786889e-38
0.84480333 0.064440675 0.61000186 1.0786889e-38
0.85522932 0.064509071 0.61000198 1.0786889e-38
0.86449128 0.064761862 0.61000216 1.0786889e-38
0.40914837 0.075305976 0.61012036 1.0786889e-38
0.64514542 0.072455175 0.61000061 1.0786889e-38
0.6551767 0.074787848 0.61000067 1.0786889e-38
0.66525322 0.074800178 0.61000067 1.0786889e-38
0.67478353 0.075168125 0.61000067 1.0786889e-38
0.68425506 0.074805669 0.61000079 1.0786889e-38
0.69375449 0.077202402 0.61000097 1.0786889e-38
0.70418799 0.078175917 0.61000103 1.0786889e-38
0.71427059 0.078578606 0.61000103 1.0786889e-38
0.72394621 0.07882899 0.61000109 1.0786889e-38
0.73487568 0.078444868 0.61000121 1.0786889e-38
0.74540466 0.078858383 0.61000127 1.0786889e-38
0.75474209 0.079225101 0.61000133 1.0786889e-38
0.76420641 0.079596803 0.61000144 1.0786889e-38
0.77471262 0.079351902 0.6100015 1.0786889e-38
0.7857374 0.07568597 0.61000156 1.0786889e-38
0.79475927 0.074817404 0.61000162 1.0786889e-38
0.80474609 0.075169735 0.61000168 1.0786889e-38
0.8148737 0.075527027 0.61000162 1.0786889e-38
0.82492059 0.075590417 0.61000186 1.0786889e-38
0.83425128 0.07445661 0.61000198 1.0786889e-38
0.84456462 0.074515112 0.61000186 1.0786889e-38
0.85522926 0.07487715 0.61000198 1.0786889e-38
0.86449128 0.075191595 0.61000216 1.0786889e-38
0.35596648 0.086133137 0.61676472 1.0786889e-38
0.47335511 0.089944683 0.61650509 8.3064685e-39
0.4918102 0.087462991 0.61997116 8.3064685e-39
0.65857792 0.08148808 0.61000067 1.0786889e-38
0.66588998 0.083443195 0.61000067 1.0786889e-38
0.67478353 0.085251749 0.61000073 1.0786889e-38
0.68444735 0.084772475 0.61000073 1.0786889e-38
0.69408685 0.085006177 0.61000079 1.0786889e-38
0.70418805 0.084729768 0.61000091 1.0786889e-38
0.71427059 0.085179448 0.61000097 1.0786889e-38
0.72468293 0.085371718 0.61000103 1.0786889e-38
0.73470503 0.084925666 0.61000133 1.0786889e-38
0.74540454 0.084640592 0.61000133 1.0786889e-38
0.75474203 0.085044608 0.61000144 1.0786889e-38
0.76420635 0.085454099 0.61000144 1.0786889e-38
0.77523667 0.085180439 0.6100015 1.0786889e-38
0.78489774 0.084369391 0.61000156 1.0786889e-38
0.79475915 0.084782943 0.61000162 1.0786889e-38
0.80474627 0.085201763 0.61000162 1.0786889e-38
0.81487381 0.085626483 0.61000162 1.0786889e-38
0.82513189 0.085038491 0.61000186 1.0786889e-38
0.83403808 0.084384769 0.61000192 1.0786889e-38
0.84456474 0.084812202 0.61000186 1.0786889e-38
0.85522926 0.085245237 0.61000198 1.0786889e-38
0.86449128 0.085621327 0.61000216 1.0786889e-38
0.51223272 0.098245472 0.61952174 8.4901451e-39
0.67646199 0.091570333 0.61000079 1.0786889e-38
0.68494797 0.094411224 0.61000079 1.0786889e-38
0.69442439 0.09518519 0.61000085 1.0786889e-38
0.70418811 0.095028691 0.61000085 1.0786889e-38
0.71427065 0.094609216 0.61000097 1.0786889e-38
0.72449875 0.095133476 0.61000103 1.0786889e-38
0.73506254 0.095400833 0.61000127 1.0786889e-38
0.7451635 0.094790272 0.61000133 1.0786889e-38
0.75474203 0.094743773 0.61000144 1.0786889e-38
0.76420641 0.095216274 0.61000144 1.0786889e-38
0.77536881 0.095491752 0.61000156 1.0786889e-38
0.78489774 0.094269291 0.61000156 1.0786889e-38
0.79475927 0.094748504 0.61000156 1.0786889e-38
0.80474609 0.095233791 0.61000162 1.0786889e-38
0.8148737 0.095725916 0.61000162 1.0786889e-38
0.82534236 0.094490759 0.61000192 1.0786889e-38
0.83400565 0.094846494 0.61059344 1.0786889e-38
0.84456462 0.095109276 0.61000186 1.0786889e-38
0.85522932 0.095613316 0.61000198 1.0786889e-38
0.86449128 0.095008075 0.6100021 1.0786889e-38
0.32634586 0.10274293 0.61660028 7.7444329e-39
0.4585585 0.10712716 0.61039597 1.0786889e-38
0.48279318 0.10588895 0.61699671 1.0786889e-38
0.69548178 0.10295252 0.61000097 1.0786889e-38
0.7043854 0.10514273 0.61000091 1.0786889e-38
0.71427059 0.10498197 0.61000085 1.0786889e-38
0.72449887 0.10463132 0.61000121 1.0786889e-38
0.73487568 0.10523228 0.61000127 1.0786889e-38
0.74564558 0.10532939 0.61000139 1.0786889e-38
0.75474203 0.10444295 0.61000144 1.0786889e-38
0.76420647 0.10497846 0.6100015 1.0786889e-38
0.77517122 0.10559884 0.61000156 1.0786889e-38
0.78472298 0.1045301 0.61000156 1.0786889e-38
0.79475939 0.10471405 0.61000156 1.0786889e-38
0.80474627 0.10526582 0.61000162 1.0786889e-38
0.81464344 0.10559943 0.61000168 1.0786889e-38
0.8251316 0.10435857 0.6100018 1.0786889e-38
0.83403808 0.1048388 0.61000192 1.0786889e-38
0.84456474 0.10540638 0.61000186 1.0786889e-38
0.8549934 0.10532999 0.61000204 1.0786889e-38
0.86449116 0.10439483 0.61000216 1.0786889e-38
0.55469888 0.1185061 0.61000007 1.0786889e-38
0.70710927 0.11175579 0.61000103 1.0786889e-38
0.71427065 0.11346877 0.61000109 1.0786889e-38
0.72449887 0.11412919 0.61000121 1.0786889e-38
0.73487568 0.1147992 0.61000127 1.0786889e-38
0.7454046 0.11547905 0.61000133 1.0786889e-38
0.75458384 0.11481614 0.61000144 1.0786889e-38
0.76420635 0.11474063 0.61000144 1.0786889e-38
0.77517116 0.11543401 0.61000156 1.0786889e-38
0.78489774 0.11472786 0.61000156 1.0786889e-38
0.79475921 0.11467961 0.61000156 1.0786889e-38
0.80474609 0.11529786 0.61000162 1.0786889e-38
0.8147974 0.1151742 0.61000168 1.0786889e-38
0.8251316 0.1145263 0.6100018 1.0786889e-38
0.8340382 0.11506581 0.61000186 1.0786889e-38
0.8443253 0.11547154 0.61000186 1.0786889e-38
0.85544842 0.11458448 0.61000204 1.0786889e-38
0.86449146 0.11482456 0.61000216 1.0786889e-38
0.49265432 0.12139198 0.61081904 1.0786889e-38
0.57513148 0.12678277 0.61000019 1.0786889e-38
0.58472002 0.12795089 0.61000019 1.0786889e-38
0.59305537 0.12880032 0.61000019 1.0786889e-38
0.60746527 0.12880546 0.61000037 1.0786889e-38
0.61291277 0.1296874 0.61000037 1.0786889e-38
0.72836661 0.12009309 0.61000115 1.0786889e-38
0.73618156 0.12377692 0.61000115 1.0786889e-38
0.7454046 0.12511608 0.61000133 1.0786889e-38
0.75491005 0.12542872 0.61000144 1.0786889e-38
0.76420653 0.12450282 0.6100015 1.0786889e-38
0.77517128 0.12526917 0.61000156 1.0786889e-38
0.78489745 0.12495783 0.61000156 1.0786889e-38
0.79475927 0.12464515 0.61000156 1.0786889e-38
0.80474597 0.1253299 0.61000168 1.0786889e-38
0.8148737 0.12501238 0.61000168 1.0786889e-38
0.8251316 0.12469403 0.6100018 1.0786889e-38
0.83438748 0.12533298 0.61004919 1.0786889e-38
0.84456533 0.12496919 0.61000186 1.0786889e-38
0.85522938 0.12464392 0.61000198 1.0786889e-38
0.86449116 0.1252543 0.61000216 1.0786889e-38
0.51112556 0.13695201 0.61581737 1.0786889e-38
0.53856832 0.13666923 0.61768323 1.0786889e-38
0.5757764 0.13480124 0.61000019 1.0786889e-38
0.58506906 0.13512044 0.61000037 1.0786889e-38
0.59465313 0.13491271 0.61000043 1.0786889e-38
0.60555017 0.13513389 0.61055756 1.0602497e-38
0.61304575 0.1344717 0.61053228 1.0325911e-38
0.73880005 0.13232011 0.61000127 1.0786889e-38
0.74561381 0.13456707 0.61000133 1.0786889e-38
0.75474203 0.13548031 0.61000144 1.0786889e-38
0.76401228 0.13452826 0.61000144 1.0786889e-38
0.77517134 0.13510434 0.61000156 1.0786889e-38
0.78489769 0.13518766 0.61000156 1.0786889e-38
0.79475927 0.13461071 0.61000162 1.0786889e-38
0.80474609 0.13536191 0.61000162 1.0786889e-38
0.8149507 0.13485196 0.61000162 1.0786889e-38
0.82513165 0.13486177 0.61000186 1.0786889e-38
0.83403802 0.13551983 0.61000192 1.0786889e-38
0.84480333 0.13447167 0.61000186 1.0786889e-38
0.85522938 0.135012 0.61000198 1.0786889e-38
0.86426926 0.13536933 0.6100021 1.0786889e-38
0.48522124 0.14369227 0.61784637 1.0786889e-38
0.51713979 0.14863862 0.61219776 1.0786889e-38
0.57584727 0.14466639 0.61000007 1.0786889e-38
0.58493215 0.14520426 0.61000037 1.0786889e-38
0.59472334 0.14475106 0.61000043 1.0786889e-38
0.60507196 0.14526927 0.61000043 1.0786889e-38
0.61316586 0.1449322 0.61000049 1.0786889e-38
0.7473191 0.14283755 0.61000127 1.0786889e-38
0.75474197 0.14517948 0.61000144 1.0786889e-38
0.76414156 0.14476398 0.6100015 1.0786889e-38
0.77517122 0.1449395 0.6100015 1.0786889e-38
0.78507268 0.14539143 0.61000156 1.0786889e-38
0.79475921 0.14457627 0.61000156 1.0786889e-38
0.80474627 0.14539394 0.61000168 1.0786889e-38
0.8148737 0.14470679 0.61000168 1.0786889e-38
0.8251316 0.14502949 0.6100018 1.0786889e-38
0.83382481 0.1454369 0.61000198 1.0786889e-38
0.84456462 0.14453529 0.61000186 1.0786889e-38
0.85522932 0.14538008 0.61000198 1.0786889e-38
0.86473042 0.14468762 0.6100021 1.0786889e-38
0.57570487 0.15471537 0.61000019 1.0786889e-38
0.5850237 0.15504839 0.61000037 1.0786889e-38
0.5945769 0.1549485 0.61000043 1.0786889e-38
0.60538161 0.15499751 0.61000049 1.0786889e-38
0.61496508 0.15509365 0.61000055 1.0786889e-38
0.62466216 0.15779242 0.61000055 1.0786889e-38
0.63290793 0.15887786 0.61000049 1.0786889e-38
0.75515497 0.15476738 0.61000144 1.0786889e-38
0.76427096 0.15500231 0.61000144 1.0786889e-38
0.77517116 0.15477465 0.6100015 1.0786889e-38
0.78489769 0.15564871 0.61000156 1.0786889e-38
0.79475915 0.15454182 0.61000156 1.0786889e-38
0.80474609 0.15542598 0.61000162 1.0786889e-38
0.8148737 0.15480623 0.61000168 1.0786889e-38
0.82513165 0.15519722 0.6100018 1.0786889e-38
0.83403832 0.15494977 0.61000198 1.0786889e-38
0.84456462 0.15483238 0.61000186 1.0786889e-38
0.85501003 0.15543249 0.61000204 1.0786889e-38
0.86449128 0.15445752 0.61000216 1.0786889e-38
0.36284691 0.16493654 0.61041707 1.0694693e-38
0.42730296 0.16749802 0.61561161 1.1706156e-38
0.57562697 0.16476606 0.61015862 1.0786889e-38
0.58511496 0.16489474 0.61000037 1.0786889e-38
0.59442991 0.16514254 0.61000043 1.0786889e-38
0.60545284 0.16491839 0.61000049 1.0786889e-38
0.61510873 0.16494478 0.61000055 1.0786889e-38
0.6249128 0.16497338 0.61000055 1.0786889e-38
0.63537687 0.16487771 0.61000055 1.0786889e-38
0.64364791 0.16575322 0.61000055 1.0786889e-38
0.65435779 0.16752788 0.61000061 1.0786889e-38
0.66612077 0.16766876 0.61004913 1.0786889e-38
0.7252723 0.16891561 0.61000109 1.0786889e-38
0.73531175 0.16756573 0.61000121 1.0786889e-38
0.7461412 0.16587681 0.61000133 1.0786889e-38
0.75474209 0.16457781 0.61000144 1.0786889e-38
0.76440102 0.1652433 0.6100015 1.0786889e-38
0.77517122 0.16460982 0.6100015 1.0786889e-38
0.78489786 0.16554862 0.61000156 1.0786889e-38
0.79475927 0.16450736 0.61000156 1.0786889e-38
0.80474639 0.16545802 0.61000162 1.0786889e-38
0.81510323 0.16463573 0.61000168 1.0786889e-38
0.82513165 0.16536495 0.6100018 1.0786889e-38
0.83425122 0.16446683 0.61000198 1.0786889e-38
0.84456474 0.16512945 0.61000186 1.0786889e-38
0.85522956 0.165078 0.61000204 1.0786889e-38
0.86449128 0.16488725 0.61000216 1.0786889e-38
0.56547469 0.17510465 0.61012006 1.0786889e-38
0.57570493 0.17513315 0.61000019 1.0786889e-38
0.58520579 0.17474324 0.61000037 1.0786889e-38
0.59450352 0.1751516 0.61000043 1.0786889e-38
0.60515457 0.1750298 0.61000049 1.0786889e-38
0.61525148 0.17479932 0.61000055 1.0786889e-38
0.62498748 0.17504106 0.61000055 1.0786889e-38
0.63517118 0.17513567 0.61000055 1.0786889e-38
0.64449364 0.17481679 0.61000055 1.0786889e-38
0.65443254 0.17503197 0.61000061 1.0786889e-38
0.66525328 0.17493851 0.61000067 1.0786889e-38
0.67478353 0.17508756 0.61000073 1.0786889e-38
0.6842038 0.17687264 0.61000085 1.0786889e-38
0.69424802 0.17725135 0.61000103 1.0786889e-38
0.70447719 0.17665766 0.61000103 1.0786889e-38
0.71465141 0.17565103 0.61000091 1.0786889e-38
0.72449881 0.17491546 0.61000121 1.0786889e-38
0.73487526 0.17506963 0.61000133 1.0786889e-38
0.7454046 0.17522857 0.61000133 1.0786889e-38
0.7545743 0.17462254 0.61000144 1.0786889e-38
0.76420653 0.17526612 0.6100015 1.0786889e-38
0.77497417 0.17470488 0.6100015 1.0786889e-38
0.78489774 0.17544852 0.61000156 1.0786889e-38
0.79475933 0.17447293 0.61000156 1.0786889e-38
0.80474633 0.17549007 0.61000162 1.0786889e-38
0.8148737 0.17450161 0.61000162 1.0786889e-38
0.82513165 0.17553267 0.6100018 1.0786889e-38
0.83403814 0.17438252 0.61000192 1.0786889e-38
0.8443253 0.17518541 0.61000186 1.0786889e-38
0.85544842 0.17472778 0.61000204 1.0786889e-38
0.86449116 0.17531697 0.61000216 1.0786889e-38
0.32389477 0.18921499 0.61733145 1.0694693e-38
0.37459573 0.18393369 0.61986554 1.0694693e-38
0.4385092 0.18423949 0.61055487 7.2834211e-39
0.45867273 0.18100552 0.61660433 1.0694693e-38
0.46504581 0.18343575 0.61418068 1.0694693e-38
0.5755623 0.18517663 0.61000013 1.0786889e-38
0.58506912 0.18482487 0.61000037 1.0786889e-38
0.59465319 0.18498714 0.61000043 1.0786889e-38
0.60522932 0.18512216 0.61000043 1.0786889e-38
0.61510831 0.18511623 0.61000055 1.0786889e-38
0.62530529 0.184926 0.61000055 1.0786889e-38
0.63500965 0.18516332 0.61000055 1.0786889e-38
0.64413542 0.18492958 0.61000055 1.0786889e-38
0.65494066 0.18494883 0.61000061 1.0786889e-38
0.66508442 0.18519166 0.61000067 1.0786889e-38
0.67462683 0.18495284 0.61000067 1.0786889e-38
0.68462133 0.18514916 0.61000073 1.0786889e-38
0.69407183 0.18493295 0.61000079 1.0786889e-38
0.70418763 0.18490905 0.61000085 1.0786889e-38
0.71427065 0.18513505 0.61000097 1.0786889e-38
0.72426462 0.1849038 0.61000121 1.0786889e-38
0.73506254 0.1853417 0.61000127 1.0786889e-38
0.74528438 0.18475749 0.61028993 1.0786889e-38
0.75474173 0.18494496 0.61000144 1.0786889e-38
0.76420653 0.18502828 0.6100015 1.0786889e-38
0.77517134 0.18477052 0.6100015 1.0786889e-38
0.78489769 0.18534847 0.61000156 1.0786889e-38
0.79455709 0.18470046 0.61000162 1.0786889e-38
0.80474633 0.18552209 0.61000162 1.0786889e-38
0.81487387 0.18460104 0.61000168 1.0786889e-38
0.82486361 0.1852493 0.61060363 1.0786889e-38
0.83403802 0.1846095 0.61000192 1.0786889e-38
0.84448534 0.1849547 0.61000186 1.0786889e-38
0.85522938 0.18477876 0.61000198 1.0786889e-38
0.86426938 0.18542494 0.6100021 1.0786889e-38
0.35258043 0.19051397 0.61688894 7.7444329e-39
0.44848645 0.19905362 0.6199469 6.7295005e-39
0.57563382 0.19504116 0.61000001 1.0786889e-38
0.58506912 0.19510859 0.61000037 1.0786889e-38
0.59472328 0.19482824 0.61000043 1.0786889e-38
0.60550445 0.19520111 0.61010921 1.0786889e-38
0.61499453 0.19525544 0.61028755 1.0418466e-38
0.62491274 0.19501223 0.61000055 1.0786889e-38
0.63531858 0.19493489 0.61000055 1.0786889e-38
0.64428562 0.19500218 0.61000055 1.0786889e-38
0.65444148 0.19508161 0.61000061 1.0786889e-38
0.6654073 0.19518305 0.61000067 1.0786889e-38
0.67495507 0.19501379 0.61000067 1.0786889e-38
0.68427378 0.19486582 0.61000073 1.0786889e-38
0.69424748 0.19491354 0.61000073 1.0786889e-38
0.70436704 0.19496295 0.61000091 1.0786889e-38
0.71408951 0.19481146 0.61000097 1.0786889e-38
0.7245599 0.19509308 0.61000109 1.0786889e-38
0.73487568 0.19516143 0.61000127 1.0786889e-38
0.74521548 0.19475468 0.61000133 1.0786889e-38
0.75490999 0.19527082 0.61000144 1.0786889e-38
0.76420647 0.1947905 0.6100015 1.0786889e-38
0.77510524 0.19485542 0.6100015 1.0786889e-38
0.78489774 0.19524838 0.61000156 1.0786889e-38
0.79475915 0.1949009 0.61000162 1.0786889e-38
0.80474633 0.19555409 0.61000162 1.0786889e-38
0.81487381 0.19470051 0.61000168 1.0786889e-38
0.82513165 0.19518897 0.6100018 1.0786889e-38
0.83403814 0.19483654 0.61000192 1.0786889e-38
0.84456462 0.19498898 0.61000186 1.0786889e-38
0.85522932 0.19514684 0.61000198 1.0786889e-38
0.86449146 0.19513205 0.6100021 1.0786889e-38
0.4060933 0.20225623 0.61568618 7.4674495e-39
0.44422302 0.20485304 0.61719733 4.425365e-39
0.57570517 0.20490733 0.61000007 1.0786889e-38
0.58493221 0.20518595 0.61000037 1.0786889e-38
0.59457684 0.20501998 0.61000043 1.0786889e-38
0.60545295 0.20496333 0.61000049 1.0786889e-38
0.61530805 0.20483516 0.61000043 1.0786889e-38
0.62498748 0.20508158 0.61000055 1.0786889e-38
0.63498843 0.20501253 0.61027259 1.0694693e-38
0.64443469 0.20507838 0.61000055 1.0786889e-38
0.65495008 0.20500594 0.61000061 1.0786889e-38
0.66508436 0.20521685 0.61000067 1.0786889e-38
0.67456549 0.20489198 0.61000067 1.0786889e-38
0.68460578 0.2049998 0.61000073 1.0786889e-38
0.69442439 0.20489763 0.61000085 1.0786889e-38
0.70400953 0.20481539 0.61000091 1.0786889e-38
0.71427017 0.20493636 0.61000085 1.0786889e-38
0.72468305 0.20506017 0.61000121 1.0786889e-38
0.73468924 0.20497726 0.61000127 1.0786889e-38
0.74534124 0.20486438 0.61000133 1.0786889e-38
0.75474197 0.20531437 0.61000144 1.0786889e-38
0.76401228 0.20480663 0.61000144 1.0786889e-38
0.77517116 0.20493217 0.6100015 1.0786889e-38
0.7848978 0.20514826 0.61000156 1.0786889e-38
0.79475921 0.20486644 0.61000156 1.0786889e-38
0.80474633 0.20558614 0.61000162 1.0786889e-38
0.8148737 0.20479994 0.61000168 1.0786889e-38
0.82513189 0.20501773 0.61000174 1.0786889e-38
0.83403814 0.20506355 0.61000192 1.0786889e-38
0.84464467 0.20502475 0.61000186 1.0786889e-38
0.85500997 0.20519225 0.61000204 1.0786889e-38
0.86471283 0.20484345 0.6100021 1.0786889e-38
0.43850893 0.21127959 0.61855316 4.9789101e-39
0.57570499 0.21494618 0.61000019 1.0786889e-38
0.5850237 0.2150344 0.61000037 1.0786889e-38
0.59434861 0.21503656 0.61000043 1.0786889e-38
0.60515451 0.21506558 0.61000049 1.0786889e-38
0.61510843 0.21493322 0.61000055 1.0786889e-38
0.62530535 0.21497373 0.61000055 1.0786889e-38
0.63537687 0.21474352 0.61000055 1.0786889e-38
0.6440767 0.2151823 0.61000055 1.0786889e-38
0.65444165 0.21495095 0.61000061 1.0786889e-38
0.66525286 0.21499272 0.61000067 1.0786889e-38
0.67500168 0.2149518 0.61000067 1.0786889e-38
0.68411475 0.21513443 0.61041611 1.0786889e-38
0.69402367 0.21491259 0.61000085 1.0786889e-38
0.70418769 0.21486951 0.61000085 1.0786889e-38
0.71445215 0.21506493 0.61000091 1.0786889e-38
0.72431511 0.21505226 0.61000109 1.0786889e-38
0.73481321 0.21501437 0.61000127 1.0786889e-38
0.7454676 0.21497671 0.61000133 1.0786889e-38
0.75474203 0.21501353 0.61000144 1.0786889e-38
0.76414156 0.21504849 0.61000144 1.0786889e-38
0.77523685 0.21501034 0.6100015 1.0786889e-38
0.78489769 0.21504816 0.61000156 1.0786889e-38
0.79475933 0.21483202 0.61000156 1.0786889e-38
0.80454093 0.21530461 0.61000162 1.0786889e-38
0.8148737 0.21489939 0.61000168 1.0786889e-38
0.82497364 0.21471012 0.61022228 1.0786889e-38
0.83403802 0.21529056 0.61000192 1.0786889e-38
0.84480333 0.21480131 0.61000186 1.0786889e-38
0.85522968 0.21484478 0.61000204 1.0786889e-38
0.86448628 0.2148613 0.61037189 1.0786889e-38
0.38181853 0.22919029 0.61637628 1.0694693e-38
0.42965776 0.22629716 0.61835372 5.3473213e-39
0.56533426 0.22502424 0.61016887 1.0694693e-38
0.57577622 0.22498471 0.61000013 1.0694693e-38
0.5851149 0.22488499 0.61000037 1.0694693e-38
0.59457695 0.22487421 0.61000043 1.0694693e-38
0.60522705 0.2249862 0.61000043 1.0694693e-38
0.6149087 0.22502674 0.61000043 1.0694693e-38
0.62506193 0.22504883 0.61057311 1.0602497e-38
0.63483745 0.2249279 0.61105657 1.0326271e-38
0.64402074 0.22309457 0.61000055 1.0786889e-38
0.65541887 0.22298251 0.61000061 1.0786889e-38
0.66546226 0.22385976 0.61000067 1.0786889e-38
0.67478341 0.22458896 0.61000067 1.0786889e-38
0.68444693 0.22508636 0.61000085 1.0786889e-38
0.69447225 0.22511783 0.61000079 1.0786889e-38
0.70436704 0.22492726 0.61000091 1.0786889e-38
0.71408945 0.22498287 0.61000097 1.0786889e-38
0.72443724 0.2250178 0.61000103 1.0786889e-38
0.73493767 0.22505404 0.61000127 1.0786889e-38
0.74559432 0.22509162 0.61000133 1.0786889e-38
0.75474209 0.22471271 0.61000144 1.0786889e-38
0.76420653 0.2250514 0.6100015 1.0786889e-38
0.77517116 0.22509472 0.6100015 1.0786889e-38
0.78489774 0.22494808 0.61000156 1.0786889e-38
0.79475939 0.22479753 0.61000156 1.0786889e-38
0.80474633 0.22498013 0.61000162 1.0786889e-38
0.81487358 0.22499886 0.61000168 1.0786889e-38
0.8253423 0.22465563 0.61000192 1.0786889e-38
0.83382469 0.22519656 0.61000198 1.0786889e-38
0.84456462 0.22485259 0.61000186 1.0786889e-38
0.85522938 0.22486733 0.61000198 1.0786889e-38
0.86449116 0.22537971 0.61000216 1.0786889e-38
0.57570493 0.23502415 0.61000019 1.0694693e-38
0.58526224 0.23490353 0.61014819 1.0694693e-38
0.59465027 0.23488897 0.61000043 1.0694693e-38
0.60537869 0.23490891 0.61000049 1.0694693e-38
0.61515623 0.23488113 0.61000055 1.0694693e-38
0.6246047 0.23517685 0.61151224 9.9574868e-39
0.63268238 0.23225832 0.61000049 1.0694693e-38
0.67718256 0.23045164 0.61000085 1.0786889e-38
0.68531621 0.23366053 0.61000091 1.0694693e-38
0.69407189 0.23512767 0.61000085 1.0694693e-38
0.70396054 0.23500766 0.61000085 1.0694693e-38
0.71420997 0.23487777 0.61000097 1.0694693e-38
0.7245599 0.2349858 0.61000121 1.0694693e-38
0.73506254 0.2350962 0.61000127 1.0694693e-38
0.7454046 0.23497811 0.61000133 1.0786889e-38
0.75457424 0.23475046 0.61000144 1.0786889e-38
0.76427096 0.23505567 0.61000144 1.0786889e-38
0.77536875 0.23516972 0.6100015 1.0786889e-38
0.78489769 0.23484798 0.61000156 1.0786889e-38
0.79475921 0.23476312 0.61000156 1.0786889e-38
0.80474633 0.23501216 0.61000162 1.0786889e-38
0.8148737 0.23509829 0.61000168 1.0786889e-38
0.82513154 0.2345055 0.6100018 1.0786889e-38
0.83403832 0.23506145 0.61000192 1.0786889e-38
0.84456474 0.23514962 0.61000186 1.0786889e-38
0.85544842 0.23487107 0.61000204 1.0786889e-38
0.86426926 0.23548055 0.6100021 1.0786889e-38
0.44523096 0.24869743 0.61636251 1.0694693e-38
0.57584727 0.24506484 0.61000037 1.0694693e-38
0.58520567 0.24502246 0.61000037 1.0694693e-38
0.59472317 0.24490543 0.61000043 1.0694693e-38
0.6054529 0.24500829 0.61000043 1.0694693e-38
0.61564612 0.24513832 0.61205316 9.5887042e-39
0.62192738 0.24274711 0.61044723 9.957128e-39
0.69578904 0.2423377 0.61000091 1.0694693e-38
0.70443791 0.24486992 0.61000091 1.0694693e-38
0.71450132 0.24500671 0.61000097 1.0694693e-38
0.72468305 0.24495636 0.61000109 1.0694693e-38
0.73487568 0.24490948 0.61000127 1.0694693e-38
0.74521548 0.24486062 0.61000133 1.0694693e-38
0.75474179 0.24507983 0.61000144 1.0694693e-38
0.76420647 0.24506433 0.61000144 1.0694693e-38
0.77517122 0.24525817 0.6100015 1.0694693e-38
0.78489769 0.24474789 0.61000156 1.0694693e-38
0.79469144 0.24497938 0.61000156 1.0694693e-38
0.80474621 0.2450442 0.61000162 1.0694693e-38
0.8148737 0.24519774 0.61000168 1.0694693e-38
0.82513154 0.24467324 0.61000186 1.0694693e-38
0.83403838 0.24494752 0.61000198 1.0694693e-38
0.8443253 0.24519476 0.61000186 1.0694693e-38
0.85522932 0.24491364 0.61000198 1.0786889e-38
0.86449158 0.24519472 0.6100021 1.0786889e-38
0.46507496 0.25540084 0.61432523 1.0694693e-38
0.56556481 0.25493231 0.61016589 1.0694693e-38
0.57556224 0.25492948 0.61000013 1.0694693e-38
0.58506918 0.25509667 0.61000037 1.0694693e-38
0.59442979 0.25491577 0.61000043 1.0694693e-38
0.60544181 0.25513151 0.61118072 9.8656513e-39
0.61258024 0.25284144 0.61183077 9.4965086e-39
0.70794654 0.25105923 0.61000103 1.0694693e-38
0.71469325 0.25467139 0.61000103 1.0694693e-38
0.72431499 0.2549381 0.61000109 1.0694693e-38
0.73455596 0.25485924 0.61013079 1.0694693e-38
0.74534124 0.25497472 0.61000133 1.0694693e-38
0.7549333 0.25517085 0.61027414 1.0694693e-38
0.76440102 0.2550672 0.61000144 1.0694693e-38
0.77517134 0.25509331 0.6100015 1.0694693e-38
0.78489774 0.25464779 0.61000156 1.0694693e-38
0.79475927 0.25519201 0.61000156 1.0694693e-38
0.80474633 0.2550762 0.61000162 1.0694693e-38
0.8146435 0.25504851 0.61000162 1.0694693e-38
0.82513165 0.25484094 0.6100018 1.0694693e-38
0.8340382 0.2548337 0.61000192 1.0694693e-38
0.84448534 0.25497127 0.61000186 1.0694693e-38
0.85522932 0.25528172 0.61000198 1.0694693e-38
0.86471313 0.25491327 0.6100021 1.0694693e-38
0.35800743 0.26152468 0.61768073 1.0694693e-38
0.57570493 0.26497015 0.61000019 1.0694693e-38
0.58493221 0.26516774 0.61000031 1.0694693e-38
0.59488761 0.2652331 0.61064452 1.0142238e-38
0.60335332 0.26359096 0.61183172 9.0369682e-39
0.71666867 0.26559323 0.61000109 1.0694693e-38
0.72443724 0.26490706 0.61000115 1.0694693e-38
0.73487568 0.26499832 0.61000127 1.0694693e-38
0.74546754 0.26509142 0.61000133 1.0694693e-38
0.75490999 0.26511294 0.61000144 1.0694693e-38
0.76420641 0.26507813 0.61000144 1.0694693e-38
0.77517122 0.26492852 0.6100015 1.0694693e-38
0.78489774 0.26454774 0.61000156 1.0694693e-38
0.79475933 0.26515758 0.61000156 1.0694693e-38
0.80474639 0.26510826 0.61000162 1.0694693e-38
0.8148737 0.26489016 0.61000168 1.0694693e-38
0.82513165 0.26500872 0.61000174 1.0694693e-38
0.8342514 0.26470551 0.61000192 1.0694693e-38
0.84456474 0.26500916 0.61000186 1.0694693e-38
0.85501003 0.26531866 0.61000204 1.0694693e-38
0.8644914 0.26501265 0.61000216 1.0694693e-38
0.57563382 0.27500623 0.61000007 1.0694693e-38
0.58502376 0.27502042 0.61000037 1.0694693e-38
0.59399003 0.27456629 0.61197978 8.9454914e-39
0.60098475 0.27099186 0.61000031 1.0694693e-38
0.70710927 0.27813026 0.61000103 1.0694693e-38
0.71452403 0.27513844 0.61000091 1.0694693e-38
0.72455984 0.27487847 0.61000115 1.0694693e-38
0.73493767 0.27480423 0.61000127 1.0694693e-38
0.7454046 0.27497038 0.61000133 1.0694693e-38
0.75474209 0.27514842 0.61000144 1.0694693e-38
0.76401228 0.27508494 0.61000144 1.0694693e-38
0.77497417 0.2750102 0.6100015 1.0694693e-38
0.78472281 0.2747885 0.61000156 1.0694693e-38
0.79475921 0.27512309 0.61000156 1.0694693e-38
0.80474627 0.27514029 0.61000162 1.0694693e-38
0.81487381 0.27498963 0.61000168 1.0694693e-38
0.82513165 0.27517644 0.61000186 1.0694693e-38
0.83403832 0.27460727 0.61000186 1.0694693e-38
0.84464467 0.27504852 0.61000186 1.0694693e-38
0.85522968 0.27497962 0.61000198 1.0694693e-38
0.86426926 0.27510789 0.6100021 1.0694693e-38
0.57570493 0.28504705 0.61000019 1.0694693e-38
0.58539933 0.28510568 0.61216003 8.5777879e-39
0.59142834 0.28239208 0.61065048 1.0326629e-38
0.70528305 0.28587779 0.61000097 1.0694693e-38
0.71445209 0.2848542 0.61000097 1.0694693e-38
0.72468299 0.28485245 0.61000115 1.0694693e-38
0.73506254 0.28485075 0.61000133 1.0694693e-38
0.74559432 0.28484899 0.61000133 1.0694693e-38
0.75474203 0.28484759 0.61000144 1.0694693e-38
0.76420647 0.28508922 0.6100015 1.0694693e-38
0.77517128 0.28508919 0.6100015 1.0694693e-38
0.7848978 0.28500625 0.61000156 1.0694693e-38
0.79475927 0.28508869 0.61000162 1.0694693e-38
0.80474639 0.28517234 0.61000162 1.0694693e-38
0.81487381 0.28508908 0.61000168 1.0694693e-38
0.82513165 0.28534412 0.6100018 1.0694693e-38
0.83403808 0.2848343 0.61000186 1.0694693e-38
0.84456474 0.28508902 0.61000186 1.0694693e-38
0.85544837 0.28464487 0.61000204 1.0694693e-38
0.86449146 0.28482771 0.6100021 1.0694693e-38
0.51774275 0.29449147 0.61714005 1.0694693e-38
0.54039598 0.29210231 0.61798024 6.368327e-39
0.55548358 0.29470718 0.61000001 1.0694693e-38
0.57587326 0.29516873 0.61082745 9.8663701e-39
0.58294368 0.29367325 0.61144966 9.3139152e-39
0.70412827 0.29515362 0.61000091 1.0694693e-38
0.71403974 0.29498944 0.61000097 1.0694693e-38
0.72431505 0.29482403 0.61000109 1.0694693e-38
0.73468924 0.29489475 0.61000133 1.0694693e-38
0.74521548 0.29496655 0.61000133 1.0694693e-38
0.75457424 0.29487842 0.61000144 1.0694693e-38
0.76414144 0.29509482 0.61000144 1.0694693e-38
0.77517116 0.29492435 0.6100015 1.0694693e-38
0.78489769 0.29490617 0.61000156 1.0694693e-38
0.79475927 0.29505426 0.61000162 1.0694693e-38
0.80474627 0.29520434 0.61000162 1.0694693e-38
0.81479728 0.29493526 0.61000162 1.0694693e-38
0.82492071 0.29518303 0.61000192 1.0694693e-38
0.83403802 0.29506129 0.6100018 1.0694693e-38
0.84480333 0.29513103 0.61000186 1.0694693e-38
0.85522938 0.29468039 0.61000198 1.0694693e-38
0.8644914 0.29490983 0.61000216 1.0694693e-38
0.35175347 0.30181593 0.61531246 1.0694693e-38
0.38715351 0.30993944 0.6115908 1.0694693e-38
0.55636591 0.30519891 0.61000007 1.0694693e-38
0.56568927 0.30506769 0.61055887 1.0142238e-38
0.57450134 0.30443749 0.61101645 9.6823376e-39
0.68810105 0.30892271 0.61000091 1.0694693e-38
0.6951524 0.30584756 0.61000091 1.0694693e-38
0.70424747 0.30498567 0.61000091 1.0694693e-38
0.71433085 0.30512834 0.61000097 1.0694693e-38
0.72443724 0.30479631 0.61000103 1.0694693e-38
0.73481321 0.30493963 0.61000127 1.0694693e-38
0.74534124 0.30508503 0.61000133 1.0694693e-38
0.75474191 0.30489138 0.61000144 1.0694693e-38
0.76420653 0.30510125 0.6100015 1.0694693e-38
0.77510518 0.30500433 0.6100015 1.0694693e-38
0.78503615 0.30463594 0.61023045 1.0694693e-38
0.79475933 0.3050198 0.61000156 1.0694693e-38
0.80474639 0.3052364 0.61000162 1.0694693e-38
0.81487358 0.30478248 0.61000168 1.0694693e-38
0.82513165 0.30500042 0.61000174 1.0694693e-38
0.8340382 0.30528831 0.61000186 1.0694693e-38
0.84432542 0.30490863 0.61000186 1.0694693e-38
0.85522944 0.30504844 0.61000198 1.0694693e-38
0.86471313 0.30498305 0.6100021 1.0694693e-38
0.48617902 0.31123132 0.61620432 1.0694693e-38
0.55636603 0.31525329 0.61000007 1.0694693e-38
0.56556654 0.31469625 0.61100912 9.6819789e-39
0.57209307 0.31255436 0.61000001 1.0694693e-38
0.67838633 0.31886625 0.61000085 1.0694693e-38
0.68520707 0.31605813 0.61000085 1.0694693e-38
0.69424838 0.31483814 0.61000085 1.0694693e-38
0.70418847 0.31504986 0.61000085 1.0694693e-38
0.71445221 0.31503335 0.61000097 1.0694693e-38
0.72460109 0.31466085 0.61030614 1.0694693e-38
0.73493767 0.31498706 0.61000127 1.0694693e-38
0.74540472 0.31496358 0.61000133 1.0694693e-38
0.75474179 0.3149139 0.61000144 1.0694693e-38
0.76420647 0.31486338 0.6100015 1.0694693e-38
0.77517116 0.31508598 0.6100015 1.0694693e-38
0.78489757 0.31503603 0.61000156 1.0694693e-38
0.79475939 0.31498533 0.61000156 1.0694693e-38
0.80474627 0.3152684 0.61000162 1.0694693e-38
0.81487381 0.31488198 0.61000168 1.0694693e-38
0.82513165 0.3151682 0.61000186 1.0694693e-38
0.83382475 0.31518179 0.61000186 1.0694693e-38
0.84456462 0.31495056 0.61000186 1.0694693e-38
0.85500997 0.31507841 0.61000204 1.0694693e-38
0.86449116 0.31507537 0.61000216 1.0694693e-38
0.55636591 0.3253077 0.61000007 1.0694693e-38
0.57157898 0.32642961 0.61000001 1.0694693e-38
0.67649651 0.32580119 0.61000073 1.0694693e-38
0.68450505 0.32501608 0.61000073 1.0694693e-38
0.69424766 0.32506436 0.61000079 1.0694693e-38
0.70412827 0.32511288 0.61000091 1.0694693e-38
0.71408951 0.32492566 0.61000097 1.0694693e-38
0.72449929 0.32498029 0.61000115 1.0694693e-38
0.73506254 0.32503706 0.61000127 1.0694693e-38
0.7454676 0.32484353 0.61000133 1.0694693e-38
0.75474203 0.32493633 0.61000144 1.0694693e-38
0.76450211 0.32467502 0.61027539 1.0694693e-38
0.77517122 0.32492116 0.6100015 1.0694693e-38
0.78489769 0.32526591 0.61000156 1.0694693e-38
0.79475927 0.32495087 0.61000162 1.0694693e-38
0.80474627 0.3253004 0.61000162 1.0694693e-38
0.8148737 0.32498142 0.61000162 1.0694693e-38
0.82513195 0.32499692 0.61000192 1.0694693e-38
0.83403814 0.32505924 0.61000192 1.0694693e-38
0.84448534 0.32498789 0.61000186 1.0694693e-38
0.85512632 0.32485276 0.61015141 1.0694693e-38
0.86460394 0.32506353 0.61060423 1.0694693e-38
0.32397482 0.33619875 0.6156984 1.0602497e-38
0.37634566 0.33306673 0.61234099 1.0694693e-38
0.55636603 0.33536211 0.61000007 1.0694693e-38
0.57497489 0.33593413 0.61014682 1.0694693e-38
0.58297241 0.33941922 0.61000013 1.0694693e-38
0.66690874 0.33699548 0.61000067 1.0694693e-38
0.67456549 0.33504164 0.61000067 1.0694693e-38
0.68444771 0.33493817 0.61000073 1.0694693e-38
0.69442445 0.33506501 0.61000085 1.0694693e-38
0.70424747 0.33494744 0.61000091 1.0694693e-38
0.71420997 0.33482909 0.61000097 1.0694693e-38
0.72443724 0.33518821 0.61000115 1.0694693e-38
0.73468924 0.3350707 0.61000127 1.0694693e-38
0.74559432 0.33496803 0.61000133 1.0694693e-38
0.75491005 0.33495501 0.61000144 1.0694693e-38
0.76420635 0.33487624 0.61000144 1.0694693e-38
0.77523667 0.33500466 0.6100015 1.0694693e-38
0.78489774 0.33516583 0.61000156 1.0694693e-38
0.79475927 0.33491641 0.61000156 1.0694693e-38
0.80474663 0.33499807 0.61000162 1.0694693e-38
0.8148737 0.33508083 0.61000168 1.0694693e-38
0.82513165 0.33482578 0.6100018 1.0694693e-38
0.83403856 0.33494526 0.61000192 1.0694693e-38
0.84456462 0.33502939 0.61000186 1.0694693e-38
0.85522968 0.33511448 0.61000204 1.0694693e-38
0.86449176 0.33489043 0.6100021 1.0694693e-38
0.55636603 0.34541652 0.61000007 1.0694693e-38
0.57577866 0.34493321 0.61000025 1.0694693e-38
0.58471948 0.34564367 0.61000031 1.0694693e-38
0.59246922 0.34798262 0.61069238 1.0694693e-38
0.65935856 0.34740639 0.61000067 1.0694693e-38
0.66525352 0.34517249 0.61000067 1.0694693e-38
0.67484045 0.34490591 0.61000073 1.0694693e-38
0.68444693 0.34509256 0.61000079 1.0694693e-38
0.69402373 0.34504253 0.61000079 1.0694693e-38
0.70418853 0.34501037 0.61000085 1.0694693e-38
0.71433085 0.344735 0.61000097 1.0694693e-38
0.72455978 0.34516558 0.61000109 1.0694693e-38
0.73481321 0.345119 0.61000127 1.0694693e-38
0.74521554 0.34507251 0.61000133 1.0694693e-38
0.75474209 0.34498245 0.61000144 1.0694693e-38
0.76440096 0.34489113 0.61000144 1.0694693e-38
0.77517116 0.34508368 0.6100015 1.0694693e-38
0.78489769 0.34506574 0.61000156 1.0694693e-38
0.79475921 0.34488195 0.61000162 1.0694693e-38
0.80474633 0.34469572 0.61000162 1.0694693e-38
0.81487381 0.34518033 0.61000168 1.0694693e-38
0.82513165 0.3449935 0.6100018 1.0694693e-38
0.83403814 0.34483147 0.61000174 1.0694693e-38
0.84464467 0.34507236 0.61000186 1.0694693e-38
0.85544842 0.34478813 0.61000198 1.0694693e-38
0.8644914 0.34497255 0.61000216 1.0694693e-38
0.55636591 0.3554709 0.61000007 1.0694693e-38
0.57570487 0.3548077 0.61000031 1.0694693e-38
0.58511484 0.35514951 0.61000037 1.0694693e-38
0.59449756 0.35505307 0.61000037 1.0694693e-38
0.60429507 0.35709459 0.61000025 1.0694693e-38
0.64773023 0.35900646 0.61000055 1.0694693e-38
0.65543199 0.35558435 0.61000061 1.0694693e-38
0.6651966 0.3549557 0.61000067 1.0694693e-38
0.67473155 0.35498437 0.61000067 1.0694693e-38
0.68444771 0.3552469 0.61000085 1.0694693e-38
0.69430661 0.35504824 0.61000091 1.0694693e-38
0.70412827 0.35507208 0.61000091 1.0694693e-38
0.71427101 0.35486963 0.61000097 1.0694693e-38
0.72449875 0.35489854 0.61000097 1.0694693e-38
0.73487568 0.35492745 0.61000127 1.0694693e-38
0.74534142 0.35519531 0.61000133 1.0694693e-38
0.7545743 0.3550064 0.61000144 1.0694693e-38
0.76401246 0.35512421 0.61000144 1.0694693e-38
0.77517134 0.35491887 0.6100015 1.0694693e-38
0.78489769 0.3549656 0.61000156 1.0694693e-38
0.79475927 0.35484758 0.61000156 1.0694693e-38
0.80474633 0.35472775 0.61000162 1.0694693e-38
0.81495076 0.35503107 0.61000168 1.0694693e-38
0.82513165 0.35516128 0.61000186 1.0694693e-38
0.83403808 0.35505849 0.61000192 1.0694693e-38
0.84456462 0.35510921 0.61000186 1.0694693e-38
0.85522938 0.35481527 0.61000198 1.0694693e-38
0.86471313 0.3550528 0.6100021 1.0694693e-38
0.55636603 0.36552528 0.61000007 1.0694693e-38
0.57570493 0.36501658 0.61000025 1.0694693e-38
0.58506912 0.3652167 0.61000031 1.0694693e-38
0.59457678 0.36490184 0.61000043 1.0694693e-38
0.60515451 0.36512357 0.61000043 1.0694693e-38
0.61449856 0.36600265 0.61000037 1.0694693e-38
0.62417519 0.36831322 0.61000049 1.0694693e-38
0.63585073 0.36886603 0.61000049 1.0694693e-38
0.64474404 0.36561149 0.61000055 1.0694693e-38
0.65462965 0.36478445 0.61002141 1.0694693e-38
0.6653049 0.3649753 0.61000067 1.0694693e-38
