# .PCD v0.7 - Point Cloud Data file format
VERSION 0.7
FIELDS x y z rgb
SIZE 4 4 4 4
TYPE F F F F
COUNT 1 1 1 1
WIDTH 1004
HEIGHT 1
VIEWPOINT 0 0 0 1 0 0 0
POINTS 1004
DATA ascii
0.66525286 -0.3548831 0.61000067 1.097128e-38
0.67473143 -0.35498399 0.61000079 1.097128e-38
0.68450505 -0.35486919 0.61000085 1.097128e-38
0.69418883 -0.35519883 0.61000091 1.097128e-38
0.70407426 -0.35485694 0.61000097 1.097128e-38
0.71420979 -0.35494879 0.61000127 1.097128e-38
0.72449917 -0.35506371 0.61000133 1.097128e-38
0.73458534 -0.35539156 0.61000133 1.097128e-38
0.74474168 -0.35704282 0.61000139 1.097128e-38
0.75474197 -0.35917756 0.61000139 1.097128e-38
0.82492054 -0.35487959 0.61000198 1.1063476e-38
0.83382469 -0.3550317 0.61000198 1.1063476e-38
0.84456462 -0.35487133 0.61000204 1.1063476e-38
0.85522932 -0.35505104 0.6100021 1.1063476e-38
0.86471283 -0.35486391 0.6100021 1.1063476e-38
0.55765706 -0.34236711 0.61000007 1.097128e-38
0.56583214 -0.34452489 0.61000025 1.097128e-38
0.57570487 -0.34483734 0.61000043 1.097128e-38
0.585069 -0.34521198 0.61000037 1.097128e-38
0.59458202 -0.34499973 0.61001676 1.097128e-38
0.60538107 -0.34497339 0.61000055 1.097128e-38
0.61515623 -0.34523329 0.61000055 1.097128e-38
0.62514597 -0.34521797 0.61000055 1.097128e-38
0.63517046 -0.34481236 0.61000061 1.097128e-38
0.64423537 -0.34484273 0.61000061 1.097128e-38
0.65460771 -0.34510943 0.61000067 1.097128e-38
0.66525346 -0.34486923 0.61000067 1.097128e-38
0.67484033 -0.34490898 0.61000073 1.097128e-38
0.68438917 -0.34516725 0.61000085 1.097128e-38
0.69424826 -0.34521011 0.61000085 1.097128e-38
0.70412832 -0.34477621 0.61000097 1.097128e-38
0.71356529 -0.34547389 0.61000121 1.097128e-38
0.72394615 -0.34813693 0.61000115 1.097128e-38
0.73096073 -0.34913993 0.61000121 1.097128e-38
0.82513148 -0.34505504 0.61000192 1.1063476e-38
0.83403814 -0.34514987 0.61000192 1.1063476e-38
0.84448534 -0.34482658 0.6100021 1.1063476e-38
0.85522956 -0.34502855 0.6100021 1.1063476e-38
0.86449176 -0.34512511 0.6100021 1.1063476e-38
0.54774135 -0.33359495 0.61000007 1.097128e-38
0.55537015 -0.33531699 0.61000007 1.097128e-38
0.56545621 -0.33497551 0.61000025 1.097128e-38
0.5757786 -0.33496478 0.61000031 1.097128e-38
0.58518285 -0.33506933 0.61035377 1.097128e-38
0.59465259 -0.33505598 0.61000043 1.097128e-38
0.60522658 -0.33523145 0.61000055 1.097128e-38
0.61506075 -0.335141 0.61000055 1.097128e-38
0.62513345 -0.33514857 0.61014873 1.0879084e-38
0.63517129 -0.33501875 0.61000061 1.097128e-38
0.6443395 -0.33499011 0.61000061 1.097128e-38
0.65477753 -0.33516559 0.61000067 1.097128e-38
0.66530931 -0.33508667 0.61000067 1.097128e-38
0.67473131 -0.33481753 0.61000067 1.097128e-38
0.68427372 -0.33546776 0.61000085 1.097128e-38
0.69363111 -0.33715081 0.61000103 1.097128e-38
0.70343804 -0.33864361 0.61000109 1.097128e-38
0.81841224 -0.33447546 0.61000186 1.097128e-38
0.82513148 -0.3348873 0.61000186 1.097128e-38
0.83403802 -0.33492282 0.61000192 1.097128e-38
0.84456462 -0.33479249 0.61000216 1.097128e-38
0.85522926 -0.33500609 0.6100021 1.097128e-38
0.86449128 -0.3350431 0.61000216 1.097128e-38
0.55537015 -0.32527059 0.61000007 1.097128e-38
0.56545597 -0.3250173 0.61000031 1.097128e-38
0.57570487 -0.32509965 0.61000043 1.097128e-38
0.58506906 -0.32507274 0.61000037 1.097128e-38
0.59457672 -0.32504517 0.61000043 1.097128e-38
0.60530388 -0.32513079 0.61000055 1.097128e-38
0.61496508 -0.32505086 0.61000055 1.097128e-38
0.62506682 -0.32525221 0.61000055 1.097128e-38
0.63517052 -0.32522523 0.61000061 1.097128e-38
0.64423537 -0.32512292 0.61000067 1.097128e-38
0.65460765 -0.32523766 0.61000067 1.097128e-38
0.66448796 -0.32614785 0.61000067 1.097128e-38
0.67426872 -0.32791427 0.61000091 1.097128e-38
0.68201441 -0.32909366 0.61000091 1.097128e-38
0.81677639 -0.32437974 0.61000168 1.097128e-38
0.82534218 -0.32505733 0.61000198 1.097128e-38
0.83425128 -0.32503554 0.61000198 1.097128e-38
0.8445639 -0.3250103 0.61000192 1.097128e-38
0.85500997 -0.32498485 0.6100021 1.097128e-38
0.8642692 -0.32496223 0.6100021 1.097128e-38
0.55537009 -0.31522414 0.61000001 1.097128e-38
0.56545603 -0.31489027 0.61000025 1.097128e-38
0.57572496 -0.31479955 0.61018682 1.0879084e-38
0.58502352 -0.31500083 0.61000037 1.097128e-38
0.59450072 -0.31503612 0.61000055 1.097128e-38
0.60530418 -0.31485963 0.61000055 1.097128e-38
0.61525136 -0.31498286 0.61000055 1.097128e-38
0.62514609 -0.31517389 0.61000055 1.097128e-38
0.63522041 -0.31521162 0.61000061 1.097128e-38
0.64405525 -0.31543323 0.61000061 1.097128e-38
0.65422678 -0.31825238 0.61000067 1.097128e-38
0.8076213 -0.31069374 0.61000174 1.097128e-38
0.81547284 -0.3146818 0.61000168 1.097128e-38
0.82513148 -0.3152284 0.61000192 1.097128e-38
0.83403802 -0.31514925 0.61000192 1.097128e-38
0.84456462 -0.31522804 0.61000216 1.097128e-38
0.85522932 -0.31496248 0.6100021 1.097128e-38
0.86449128 -0.31488031 0.61000216 1.097128e-38
0.4026497 -0.30218133 0.6187166 6.2448278e-39
0.55537009 -0.30517766 0.61000001 1.097128e-38
0.56545597 -0.30476326 0.61000007 1.097128e-38
0.57563084 -0.30502793 0.61000031 1.097128e-38
0.58506906 -0.3049342 0.61000037 1.097128e-38
0.59457672 -0.30501711 0.61000049 1.097128e-38
0.60538107 -0.30493069 0.61000055 1.097128e-38
0.61515623 -0.30489129 0.61000055 1.097128e-38
0.62498695 -0.30528823 0.61000055 1.097128e-38
0.63515854 -0.305372 0.61083138 1.0418468e-38
0.64084792 -0.30881807 0.61000067 1.097128e-38
0.80589515 -0.30368805 0.61000168 1.097128e-38
0.81487358 -0.30522013 0.61000168 1.097128e-38
0.82513148 -0.30506065 0.61000192 1.097128e-38
0.83403814 -0.30492228 0.61000192 1.097128e-38
0.84464467 -0.30519146 0.61000216 1.097128e-38
0.85544837 -0.30493599 0.6100021 1.097128e-38
0.86471283 -0.30479413 0.6100021 1.097128e-38
0.40098044 -0.29724348 0.61897707 6.2448278e-39
0.54754394 -0.29587582 0.61000001 1.097128e-38
0.55537015 -0.29513124 0.61000007 1.097128e-38
0.56538606 -0.29479942 0.61000019 1.097128e-38
0.57570493 -0.29515421 0.61000043 1.097128e-38
0.58493227 -0.29485959 0.61000037 1.097128e-38
0.59457678 -0.29483011 0.61000049 1.097128e-38
0.60522652 -0.2951934 0.61000055 1.097128e-38
0.61506075 -0.29480189 0.61000055 1.097128e-38
0.62475717 -0.29515189 0.61048466 1.0602859e-38
0.63253194 -0.29818073 0.61000061 1.097128e-38
0.79743779 -0.293587 0.61000162 1.097128e-38
0.80491066 -0.29525861 0.61061895 1.097128e-38
0.81487381 -0.29512072 0.61000168 1.097128e-38
0.82513148 -0.29489291 0.61000186 1.097128e-38
0.83403844 -0.29503611 0.61000198 1.097128e-38
0.84456462 -0.29514822 0.61000216 1.097128e-38
0.85522926 -0.29491618 0.6100021 1.097128e-38
0.86449146 -0.29506239 0.6100021 1.097128e-38
0.36127287 -0.28339571 0.61791265 1.0879084e-38
0.54741234 -0.28559649 0.61000001 1.097128e-38
0.5655961 -0.28501469 0.61000013 1.097128e-38
0.57570487 -0.28494531 0.61000037 1.097128e-38
0.58520561 -0.28501481 0.61000037 1.097128e-38
0.59450346 -0.28481066 0.61000049 1.097128e-38
0.605304 -0.28509045 0.61000055 1.097128e-38
0.61510813 -0.2849381 0.61000055 1.097128e-38
0.62234265 -0.2873114 0.61000055 1.097128e-38
0.78769755 -0.28249937 0.61000162 1.097128e-38
0.79498273 -0.28472137 0.61000162 1.097128e-38
0.80474609 -0.28531331 0.61000168 1.097128e-38
0.81487358 -0.28502122 0.61000168 1.097128e-38
0.82513177 -0.28506407 0.61000192 1.097128e-38
0.83403796 -0.28515005 0.61000192 1.097128e-38
0.84448522 -0.28510654 0.61000204 1.097128e-38
0.85522956 -0.28489363 0.6100021 1.097128e-38
0.86449146 -0.28498036 0.61000216 1.097128e-38
0.37984109 -0.2729691 0.61283284 1.0879084e-38
0.41919488 -0.27933806 0.61994731 8.7485081e-39
0.42256069 -0.27770787 0.61717957 8.3793668e-39
0.54741216 -0.27547905 0.61000001 1.097128e-38
0.55537009 -0.2750383 0.61000001 1.097128e-38
0.56545597 -0.27505684 0.61000019 1.097128e-38
0.57570523 -0.27490649 0.61000037 1.097128e-38
0.58511472 -0.27515545 0.61000037 1.097128e-38
0.59457624 -0.27497473 0.61000049 1.097128e-38
0.60530412 -0.2748192 0.61000055 1.097128e-38
0.61312342 -0.27683941 0.6116007 9.9574924e-39
0.77931887 -0.27191061 0.6100015 1.097128e-38
0.78529686 -0.27451104 0.61000156 1.097128e-38
0.79475915 -0.2749716 0.61000162 1.097128e-38
0.80474609 -0.27528128 0.61000168 1.097128e-38
0.81487358 -0.2749218 0.61000168 1.097128e-38
0.82513154 -0.27523533 0.61000186 1.097128e-38
0.83403808 -0.27492306 0.61000192 1.097128e-38
0.84456462 -0.27506942 0.61000198 1.097128e-38
0.85501003 -0.2752251 0.61000204 1.097128e-38
0.86426926 -0.27490664 0.6100021 1.097128e-38
0.43348682 -0.26701325 0.61925697 1.0879084e-38
0.54767549 -0.26462331 0.61000001 1.097128e-38
0.56531549 -0.2651023 0.61000019 1.097128e-38
0.57582748 -0.26475027 0.61013967 1.0879084e-38
0.58506894 -0.26508462 0.61000037 1.097128e-38
0.59465021 -0.26513714 0.61000049 1.097128e-38
0.60354435 -0.26609546 0.61103404 1.0234076e-38
0.77636689 -0.26404208 0.61000156 1.097128e-38
0.78489763 -0.2647661 0.61000156 1.097128e-38
0.79475915 -0.26500604 0.61000162 1.097128e-38
0.80474597 -0.26524922 0.61000168 1.097128e-38
0.8148737 -0.26482233 0.61000168 1.097128e-38
0.82513154 -0.26506761 0.61000186 1.097128e-38
0.83382469 -0.26504645 0.61000192 1.097128e-38
0.8443253 -0.26502687 0.61000186 1.097128e-38
0.85522926 -0.26519573 0.61000198 1.097128e-38
0.8644914 -0.26481757 0.61000216 1.097128e-38
0.54780698 -0.2545571 0.61000001 1.0879084e-38
0.56545597 -0.25514141 0.61000025 1.097128e-38
0.57563382 -0.25482565 0.61000037 1.097128e-38
0.58502352 -0.25501484 0.61000037 1.097128e-38
0.5940184 -0.25566447 0.61084163 1.0510305e-38
0.60098469 -0.25995946 0.61000037 1.097128e-38
0.76677656 -0.25366887 0.6100015 1.097128e-38
0.77517122 -0.25485846 0.6100015 1.097128e-38
0.78489769 -0.25486621 0.61000156 1.097128e-38
0.79475915 -0.2550405 0.61000162 1.097128e-38
0.80474609 -0.25521719 0.61000168 1.097128e-38
0.81475639 -0.25475359 0.61047405 1.097128e-38
0.82513148 -0.25489989 0.61000186 1.097128e-38
0.83403802 -0.25515217 0.61000192 1.097128e-38
0.84456462 -0.25499162 0.61000192 1.097128e-38
0.85522932 -0.25482765 0.61000198 1.097128e-38
0.86471313 -0.25472435 0.6100021 1.097128e-38
0.53013557 -0.24566822 0.61212075 1.0879084e-38
0.54817164 -0.24443577 0.61000007 1.0879084e-38
0.56545597 -0.24501443 0.61000037 1.0879084e-38
0.57555968 -0.24470678 0.61021662 1.0879084e-38
0.58516252 -0.24518949 0.61106646 1.0418108e-38
0.59077185 -0.24812758 0.61166066 1.0234078e-38
0.75742948 -0.24230416 0.61000139 1.097128e-38
0.76442099 -0.2447513 0.6100015 1.097128e-38
0.77517116 -0.2450233 0.6100015 1.097128e-38
0.78489769 -0.2449663 0.61000156 1.097128e-38
0.79475915 -0.24507494 0.61000162 1.097128e-38
0.80474609 -0.24518515 0.61000168 1.097128e-38
0.81487352 -0.24512891 0.61000168 1.097128e-38
0.82492065 -0.24508329 0.61000192 1.097128e-38
0.83403802 -0.24492513 0.61000192 1.097128e-38
0.84480333 -0.24495184 0.61000186 1.097128e-38
0.85544842 -0.24479271 0.61000204 1.097128e-38
0.86449164 -0.24499968 0.6100021 1.097128e-38
0.36817545 -0.2335898 0.61934036 1.0879084e-38
0.54839951 -0.23442966 0.61000007 1.0879084e-38
0.56552625 -0.23505852 0.61000013 1.0879084e-38
0.57590288 -0.23485461 0.61057526 1.0694693e-38
0.58319789 -0.23737365 0.61180788 9.9571294e-39
0.74938673 -0.23118441 0.61000133 1.097128e-38
0.75493377 -0.23478533 0.61000144 1.097128e-38
0.76401228 -0.23498937 0.6100015 1.097128e-38
0.77497417 -0.23494373 0.61000156 1.097128e-38
0.78489769 -0.2350664 0.61000156 1.097128e-38
0.79475915 -0.23510937 0.61000162 1.097128e-38
0.80474627 -0.23515315 0.61000168 1.097128e-38
0.81502694 -0.2351128 0.61001861 1.097128e-38
0.82513154 -0.23524357 0.61000186 1.097128e-38
0.83403802 -0.23469812 0.61000192 1.097128e-38
0.84456462 -0.23491082 0.61000192 1.097128e-38
0.85522956 -0.23512694 0.61000204 1.097128e-38
0.86426932 -0.23527928 0.6100021 1.097128e-38
0.52140981 -0.22935347 0.61089522 1.0879084e-38
0.54797632 -0.2245928 0.61000007 1.0879084e-38
0.56545603 -0.22509745 0.61000019 1.0879084e-38
0.57406384 -0.22617564 0.61097032 1.0234075e-38
0.74693394 -0.22370759 0.61000127 1.097128e-38
0.75474203 -0.22532895 0.61000144 1.097128e-38
0.76420635 -0.22498305 0.6100015 1.097128e-38
0.77517134 -0.22486258 0.61000156 1.097128e-38
0.78472292 -0.2248493 0.61000156 1.097128e-38
0.79475915 -0.22514382 0.61000162 1.097128e-38
0.80474597 -0.2251211 0.61000168 1.097128e-38
0.81487352 -0.22492997 0.61000168 1.097128e-38
0.8251316 -0.22507581 0.61000186 1.097128e-38
0.83425128 -0.22479691 0.61000198 1.097128e-38
0.84464467 -0.22487003 0.61000186 1.097128e-38
0.85522926 -0.22510447 0.61000198 1.097128e-38
0.86449128 -0.2251846 0.61000216 1.097128e-38
0.35936645 -0.21756984 0.61649495 1.0879084e-38
0.54839945 -0.21444809 0.61000007 1.0879084e-38
0.56439072 -0.21606679 0.61000025 1.0879084e-38
0.57157886 -0.2196781 0.61000013 1.0879084e-38
0.73730278 -0.21278718 0.61000127 1.097128e-38
0.74534124 -0.21482937 0.61000144 1.097128e-38
0.75491005 -0.21529275 0.61000144 1.097128e-38
0.76440096 -0.21497263 0.6100015 1.097128e-38
0.7751714 -0.21502741 0.61000156 1.097128e-38
0.78489774 -0.21460781 0.61000156 1.097128e-38
0.79475915 -0.21517828 0.61000162 1.097128e-38
0.80474603 -0.21508905 0.61000168 1.097128e-38
0.81464338 -0.21508774 0.61000168 1.097128e-38
0.82513148 -0.21490809 0.61000186 1.097128e-38
0.83403802 -0.21492453 0.61000192 1.097128e-38
0.84448534 -0.21508995 0.61000198 1.097128e-38
0.85500991 -0.21509871 0.61000204 1.097128e-38
0.86449122 -0.21475486 0.61000216 1.097128e-38
0.37127241 -0.20822355 0.61397636 1.0879084e-38
0.54839945 -0.20445734 0.61000007 1.0879084e-38
0.55414182 -0.20564407 0.61079478 1.0233716e-38
0.56139582 -0.20933409 0.61000007 1.0879084e-38
0.72836655 -0.20180468 0.61000127 1.097128e-38
0.73508167 -0.20456795 0.61000127 1.097128e-38
0.74521542 -0.20471495 0.61000144 1.097128e-38
0.75474185 -0.20495954 0.61000144 1.097128e-38
0.76420635 -0.2049692 0.6100015 1.097128e-38
0.77517116 -0.20519225 0.61000156 1.097128e-38
0.78489769 -0.20470789 0.61000156 1.097128e-38
0.79469138 -0.20496547 0.61000162 1.097128e-38
0.80474609 -0.20505704 0.61000162 1.097128e-38
0.81487358 -0.20523754 0.61000168 1.097128e-38
0.82513154 -0.20474036 0.61000186 1.097128e-38
0.83403838 -0.20503835 0.61000198 1.097128e-38
0.84456462 -0.20504925 0.61000192 1.097128e-38
0.85522926 -0.20506088 0.61000198 1.097128e-38
0.86471313 -0.20465454 0.6100021 1.097128e-38
0.4613905 -0.19047716 0.61696297 1.0879084e-38
0.52639204 -0.19392291 0.6124351 2.8599577e-39
0.54778469 -0.19555096 0.61325097 6.9150366e-39
0.55137426 -0.19915414 0.61000001 1.0879084e-38
0.71706402 -0.19210044 0.61000109 1.097128e-38
0.72497332 -0.19487336 0.61000109 1.097128e-38
0.73506254 -0.19492353 0.61000127 1.097128e-38
0.74540448 -0.19483294 0.61000133 1.097128e-38
0.7545743 -0.19462973 0.61000144 1.097128e-38
0.7642709 -0.19496073 0.6100015 1.097128e-38
0.77536881 -0.19510435 0.61000156 1.097128e-38
0.78489774 -0.19480799 0.61000156 1.097128e-38
0.79475927 -0.19474934 0.61000162 1.097128e-38
0.80474627 -0.195025 0.61000168 1.097128e-38
0.81487358 -0.19513807 0.61000168 1.097128e-38
0.82513154 -0.19457263 0.61000186 1.097128e-38
0.83403802 -0.19515231 0.61000192 1.097128e-38
0.8443253 -0.19501752 0.61000192 1.097128e-38
0.85522926 -0.19469282 0.61000198 1.097128e-38
0.86449146 -0.19493696 0.6100021 1.097128e-38
0.50423318 -0.18952982 0.61439937 1.0879084e-38
0.53914648 -0.18072313 0.61913186 1.6598913e-39
0.54247218 -0.18712325 0.61855638 8.3049075e-40
0.70627356 -0.18272205 0.61000103 1.097128e-38
0.71446967 -0.18484277 0.61029589 1.097128e-38
0.72449839 -0.18505205 0.61000115 1.097128e-38
0.73493767 -0.184881 0.61000127 1.097128e-38
0.7454046 -0.18519592 0.61000144 1.097128e-38
0.75474197 -0.1845924 0.61000144 1.097128e-38
0.76420641 -0.18495628 0.61000144 1.097128e-38
0.77517128 -0.18502881 0.6100015 1.097128e-38
0.7848978 -0.18490809 0.61000156 1.097128e-38
0.79475915 -0.18478382 0.61000162 1.097128e-38
0.80474609 -0.18499295 0.61000162 1.097128e-38
0.8148737 -0.18503867 0.61000168 1.097128e-38
0.8253423 -0.18472333 0.61000192 1.097128e-38
0.83382452 -0.18528681 0.61000198 1.097128e-38
0.84456474 -0.18497144 0.61000186 1.097128e-38
0.85544831 -0.18464942 0.61000204 1.097128e-38
0.86426926 -0.18522362 0.6100021 1.097128e-38
0.67598438 -0.17159075 0.61000085 1.097128e-38
0.68444735 -0.17277944 0.61000091 1.097128e-38
0.69471049 -0.17375609 0.61000097 1.097128e-38
0.70441556 -0.17507243 0.61000085 1.097128e-38
0.71414781 -0.17516901 0.61006927 1.097128e-38
0.72431499 -0.17485097 0.61000121 1.097128e-38
0.73481321 -0.17484102 0.61000133 1.097128e-38
0.7455942 -0.17530867 0.61000144 1.097128e-38
0.75469655 -0.17496967 0.61060381 1.0879084e-38
0.76414144 -0.17495325 0.61000144 1.097128e-38
0.7751711 -0.17519364 0.6100015 1.097128e-38
0.78489774 -0.17500819 0.61000156 1.097128e-38
0.79475915 -0.17481826 0.61000162 1.097128e-38
0.80454075 -0.17531691 0.61000168 1.097128e-38
0.81487358 -0.17493919 0.61000168 1.097128e-38
0.8251316 -0.17491372 0.61000186 1.097128e-38
0.83403814 -0.17538142 0.61000192 1.097128e-38
0.84480333 -0.17492084 0.61000186 1.097128e-38
0.85522956 -0.17499204 0.61000204 1.097128e-38
0.8644914 -0.17512189 0.61000216 1.097128e-38
0.5378688 -0.16555016 0.61739004 1.3837066e-39
0.54303074 -0.16184655 0.61734515 1.6606606e-39
0.62684995 -0.16150513 0.61000049 1.0879084e-38
0.63486201 -0.16209221 0.61000055 1.0879084e-38
0.64504981 -0.16276139 0.61000061 1.0879084e-38
0.65491343 -0.16389811 0.61000067 1.0879084e-38
0.66525316 -0.16462144 0.61000067 1.0879084e-38
0.67478305 -0.16500407 0.61000067 1.0879084e-38
0.68466848 -0.16491991 0.61000079 1.0879084e-38
0.69407171 -0.1651008 0.61000091 1.097128e-38
0.70396054 -0.16479653 0.61000085 1.097128e-38
0.71450132 -0.16516779 0.61000097 1.097128e-38
0.72449869 -0.16510779 0.61000121 1.097128e-38
0.73468924 -0.16480358 0.61000127 1.097128e-38
0.74546748 -0.16519427 0.61000133 1.097128e-38
0.75474203 -0.16519406 0.61000144 1.097128e-38
0.76407486 -0.16491996 0.61013275 1.097128e-38
0.77523685 -0.16510904 0.61000156 1.097128e-38
0.78489769 -0.16510826 0.61000156 1.097128e-38
0.79475915 -0.16485272 0.61000162 1.097128e-38
0.80474627 -0.16559897 0.61000168 1.097128e-38
0.8148737 -0.16483974 0.61000168 1.097128e-38
0.82513154 -0.16474599 0.61000186 1.097128e-38
0.83403802 -0.1651544 0.61000192 1.097128e-38
0.84443891 -0.16481894 0.61030978 1.0879084e-38
0.85501003 -0.16533895 0.61000204 1.097128e-38
0.86449128 -0.16469216 0.61000216 1.097128e-38
0.42264801 -0.15165442 0.61186898 1.0879084e-38
0.47131857 -0.15172908 0.61095792 1.0879084e-38
0.50999212 -0.15477924 0.61066896 1.0879084e-38
0.54845244 -0.1564011 0.6135298 6.6384735e-39
0.55474019 -0.15461826 0.61128408 9.496517e-39
0.56511682 -0.15320592 0.61000001 1.0879084e-38
0.57544708 -0.15257846 0.61000013 1.0879084e-38
0.58506906 -0.152393 0.61000019 1.0879084e-38
0.59495246 -0.15289383 0.61000025 1.0879084e-38
0.60521394 -0.1541785 0.61000055 1.0879084e-38
0.61510837 -0.1542708 0.61000049 1.0879084e-38
0.62522018 -0.15489185 0.61000055 1.0879084e-38
0.63533294 -0.15494089 0.61000055 1.0879084e-38
0.64407659 -0.15504974 0.61000061 1.0879084e-38
0.65469056 -0.1550491 0.61000067 1.0879084e-38
0.66546828 -0.15504844 0.61000067 1.0879084e-38
0.67461205 -0.15516086 0.61000073 1.0879084e-38
0.68422616 -0.15479141 0.61000079 1.0879084e-38
0.69447225 -0.15508352 0.61000085 1.0879084e-38
0.70418805 -0.15495422 0.61000091 1.0879084e-38
0.71403974 -0.15482147 0.61000085 1.0879084e-38
0.72473294 -0.15512009 0.61000097 1.0879084e-38
0.73487568 -0.15498826 0.61000127 1.0879084e-38
0.7451635 -0.15485279 0.61000144 1.0879084e-38
0.75474191 -0.15549488 0.61000144 1.097128e-38
0.76420641 -0.15469538 0.61000144 1.097128e-38
0.77517134 -0.15503111 0.61000156 1.097128e-38
0.78489774 -0.15520835 0.61000156 1.097128e-38
0.79475921 -0.15488715 0.61000156 1.097128e-38
0.80474609 -0.15556698 0.61000162 1.097128e-38
0.81487358 -0.1547403 0.61000168 1.097128e-38
0.82513177 -0.15491712 0.61000192 1.097128e-38
0.83378798 -0.15512691 0.61011541 1.097128e-38
0.84464467 -0.15484621 0.61000186 1.097128e-38
0.85522926 -0.15529412 0.61000198 1.097128e-38
0.86471301 -0.15458478 0.6100021 1.097128e-38
0.40056357 -0.14828277 0.61086261 1.0879084e-38
0.54938895 -0.14464448 0.61000007 1.0879084e-38
0.56545597 -0.14509568 0.61000019 1.0879084e-38
0.57584721 -0.14490975 0.61000037 1.0879084e-38
0.58511484 -0.14489087 0.61000037 1.0879084e-38
0.59434873 -0.14514205 0.61000043 1.0879084e-38
0.60515457 -0.14495532 0.61000049 1.0879084e-38
0.61525148 -0.14483239 0.61000055 1.0879084e-38
0.62506723 -0.14499877 0.61000055 1.0879084e-38
0.63502342 -0.14516836 0.61000055 1.0879084e-38
0.64443469 -0.14494158 0.61000061 1.0879084e-38
0.65469176 -0.1451125 0.61000067 1.0879084e-38
0.66503805 -0.14506327 0.61000067 1.0879084e-38
0.67493969 -0.1450557 0.61000067 1.0879084e-38
0.68444735 -0.14508566 0.61000079 1.0879084e-38
0.69402355 -0.14488663 0.61000085 1.0879084e-38
0.70441556 -0.14510708 0.61000085 1.0879084e-38
0.71427059 -0.14490698 0.61000097 1.0879084e-38
0.72443718 -0.14492753 0.61000115 1.0879084e-38
0.73506254 -0.14516899 0.61000127 1.0879084e-38
0.7454046 -0.14472045 0.61000133 1.0879084e-38
0.75491005 -0.14545067 0.61000144 1.0879084e-38
0.76420635 -0.14493322 0.6100015 1.0879084e-38
0.77510524 -0.14495461 0.61000156 1.0879084e-38
0.78489774 -0.14530845 0.61000156 1.0879084e-38
0.79475915 -0.14492163 0.61000156 1.0879084e-38
0.80499417 -0.14519311 0.61043435 1.0879084e-38
0.8148737 -0.14464088 0.61000168 1.0879084e-38
0.82492065 -0.1454533 0.61000192 1.0879084e-38
0.83403814 -0.14470036 0.61000192 1.0879084e-38
0.84448534 -0.14507337 0.61000186 1.0879084e-38
0.85522932 -0.14492604 0.61000216 1.0879084e-38
0.86425269 -0.1452506 0.6100021 1.097128e-38
0.47844392 -0.13844228 0.61266518 1.0879084e-38
0.54938895 -0.13464583 0.61000007 1.0879084e-38
0.56554645 -0.13511047 0.61004114 1.0879084e-38
0.57570481 -0.13487534 0.61000037 1.0879084e-38
0.5850237 -0.13504283 0.61000037 1.0879084e-38
0.59457684 -0.13512096 0.61000043 1.0879084e-38
0.6054529 -0.1348471 0.61000043 1.0879084e-38
0.61510873 -0.13497633 0.61000055 1.0879084e-38
0.6249128 -0.13510934 0.61000055 1.0879084e-38
0.63531846 -0.13490734 0.61000055 1.0879084e-38
0.64412141 -0.13510482 0.61000061 1.0879084e-38
0.65453017 -0.13500237 0.61000067 1.0879084e-38
0.66546828 -0.13501765 0.61000067 1.0879084e-38
0.67461216 -0.13499613 0.61000073 1.0879084e-38
0.68460578 -0.13514937 0.61000079 1.0879084e-38
0.69424802 -0.13511069 0.61000091 1.0879084e-38
0.7039606 -0.13484086 0.61000085 1.0879084e-38
0.71445215 -0.13522723 0.61000097 1.0879084e-38
0.72431505 -0.13496511 0.61000115 1.0879084e-38
0.73493767 -0.13513079 0.61000127 1.0879084e-38
0.7454046 -0.13508341 0.61000144 1.0879084e-38
0.75474185 -0.13512549 0.61000144 1.0879084e-38
0.76420647 -0.13517103 0.6100015 1.0879084e-38
0.77497417 -0.13463847 0.61000156 1.0879084e-38
0.78489774 -0.13540854 0.61000156 1.0879084e-38
0.79455692 -0.13472198 0.61000156 1.0879084e-38
0.80474609 -0.13550289 0.61000162 1.0879084e-38
0.81487358 -0.13454142 0.61000168 1.0879084e-38
0.82513154 -0.13559981 0.61000186 1.0879084e-38
0.83403808 -0.13447335 0.61000192 1.0879084e-38
0.8443253 -0.13530365 0.61000186 1.0879084e-38
0.85522926 -0.13455796 0.61000198 1.0879084e-38
0.86449116 -0.13548894 0.61000216 1.0879084e-38
0.54938895 -0.12464715 0.61000007 1.0879084e-38
0.56545603 -0.12484167 0.61000019 1.0879084e-38
0.57577634 -0.12483276 0.61000037 1.0879084e-38
0.58493227 -0.12519698 0.61000037 1.0879084e-38
0.59482217 -0.12477912 0.61006248 1.0879084e-38
0.60538155 -0.1249255 0.61000049 1.0879084e-38
0.61496496 -0.12512369 0.61000055 1.0879084e-38
0.62522 -0.12484605 0.61000055 1.0879084e-38
0.63500941 -0.12513946 0.61000055 1.0879084e-38
0.64428514 -0.12500812 0.61000061 1.0879084e-38
0.6549502 -0.1248664 0.61000067 1.0879084e-38
0.66503817 -0.12503873 0.61000067 1.0879084e-38
0.67500156 -0.12510996 0.61000067 1.0879084e-38
0.68427372 -0.12502158 0.61000079 1.0879084e-38
0.6944086 -0.12510301 0.61000085 1.0879084e-38
0.70418805 -0.12499372 0.61000091 1.0879084e-38
0.71410477 -0.1248817 0.61000097 1.0879084e-38
0.72449881 -0.12521677 0.61000109 1.0879084e-38
0.73463815 -0.12487078 0.61000133 1.0879084e-38
0.7455942 -0.12518962 0.61000139 1.0879084e-38
0.7545743 -0.12480373 0.61000144 1.0879084e-38
0.76420641 -0.12540886 0.61000144 1.0879084e-38
0.77517116 -0.12454393 0.61000156 1.0879084e-38
0.78489769 -0.12550864 0.61000156 1.0879084e-38
0.79475915 -0.12449364 0.61000156 1.0879084e-38
0.80474609 -0.12547086 0.61000162 1.0879084e-38
0.81531966 -0.12476046 0.61045843 1.0879084e-38
0.82513154 -0.12543207 0.61000186 1.0879084e-38
0.83425122 -0.12455826 0.61000198 1.0879084e-38
0.84456462 -0.12524834 0.61000186 1.0879084e-38
0.85544837 -0.1245061 0.61000204 1.0879084e-38
0.86449116 -0.12505919 0.61000216 1.0879084e-38
0.52442527 -0.11819105 0.61865759 1.0879084e-38
0.54938895 -0.11464848 0.61000007 1.0879084e-38
0.56545597 -0.11471465 0.61000019 1.0879084e-38
0.57570511 -0.11496744 0.61000037 1.0879084e-38
0.58506912 -0.11511572 0.61000037 1.0879084e-38
0.59465033 -0.1149141 0.61000043 1.0879084e-38
0.60507202 -0.1151939 0.61000049 1.0879084e-38
0.61510837 -0.1148072 0.61000055 1.0879084e-38
0.62506723 -0.11495642 0.61000055 1.0879084e-38
0.63517094 -0.11510988 0.61000055 1.0879084e-38
0.64444917 -0.11490774 0.61000061 1.0879084e-38
0.6544413 -0.1149556 0.61000067 1.0879084e-38
0.66546828 -0.11498683 0.61000067 1.0879084e-38
0.67456537 -0.11506467 0.61000067 1.0879084e-38
0.68466848 -0.1150632 0.61000079 1.0879084e-38
0.69407201 -0.11490611 0.61000091 1.0879084e-38
0.70447391 -0.11498488 0.61000115 1.0879084e-38
0.71427065 -0.11473171 0.61000097 1.0879084e-38
0.72473294 -0.11522255 0.61000097 1.0879084e-38
0.73487568 -0.11480715 0.61000127 1.0879084e-38
0.74546748 -0.1150796 0.61000139 1.0879084e-38
0.75474197 -0.11475835 0.61000144 1.0879084e-38
0.76440102 -0.11538526 0.61000144 1.0879084e-38
0.77517116 -0.11470877 0.61000156 1.0879084e-38
0.78489769 -0.11560873 0.61000156 1.0879084e-38
0.79475915 -0.1145281 0.61000156 1.0879084e-38
0.80474627 -0.11543883 0.61000168 1.0879084e-38
0.8148737 -0.11484605 0.61000168 1.0879084e-38
0.82513148 -0.11526435 0.61000186 1.0879084e-38
0.83403838 -0.11504062 0.61000198 1.0879084e-38
0.84456474 -0.11495125 0.61000186 1.0879084e-38
0.8549934 -0.11523586 0.61000204 1.0879084e-38
0.8644914 -0.11462948 0.61000216 1.0879084e-38
0.54938895 -0.10464981 0.61000007 1.0879084e-38
0.56559604 -0.10474665 0.61000007 1.0879084e-38
0.57563388 -0.10510381 0.61000037 1.0879084e-38
0.58506918 -0.10483202 0.61000037 1.0879084e-38
0.59450114 -0.10508148 0.61000043 1.0879084e-38
0.60530388 -0.10508463 0.61000049 1.0879084e-38
0.61526537 -0.1049245 0.61000049 1.0879084e-38
0.6249128 -0.1050705 0.61000055 1.0879084e-38
0.63537669 -0.10484946 0.61000055 1.0879084e-38
0.64413536 -0.10507799 0.61000061 1.0879084e-38
0.6549502 -0.10498961 0.61000067 1.0879084e-38
0.66503817 -0.10501423 0.61000067 1.0879084e-38
0.67500156 -0.10493953 0.61000067 1.0879084e-38
0.68422616 -0.10495064 0.61000073 1.0879084e-38
0.69442433 -0.1051117 0.61000091 1.0879084e-38
0.70396054 -0.10488521 0.61000085 1.0879084e-38
0.71427047 -0.10530195 0.61000097 1.0879084e-38
0.72426462 -0.10481792 0.61000103 1.0879084e-38
0.73487568 -0.1052402 0.61000127 1.0879084e-38
0.7451635 -0.10474861 0.61000144 1.0879084e-38
0.75474203 -0.10505918 0.61000144 1.0879084e-38
0.76427108 -0.10514478 0.6100015 1.0879084e-38
0.7751714 -0.10487361 0.61000156 1.0879084e-38
0.78489774 -0.10570884 0.61000156 1.0879084e-38
0.79475915 -0.10456254 0.61000156 1.0879084e-38
0.80474609 -0.1054068 0.61000162 1.0879084e-38
0.8148737 -0.1047466 0.61000168 1.0879084e-38
0.82513154 -0.10509661 0.61000186 1.0879084e-38
0.83382469 -0.10552718 0.61000198 1.0879084e-38
0.84456462 -0.10465418 0.61000186 1.0879084e-38
0.85522938 -0.10552736 0.6100021 1.0879084e-38
0.86471301 -0.104515 0.6100021 1.0879084e-38
0.39975441 -0.09702675 0.61828119 1.0879084e-38
0.54938895 -0.09465114 0.61000007 1.0879084e-38
0.56545597 -0.094797112 0.61000001 1.0879084e-38
0.57556218 -0.09524183 0.61000037 1.0879084e-38
0.58520567 -0.094746567 0.61000037 1.0879084e-38
0.59442973 -0.095246442 0.61000043 1.0879084e-38
0.60545295 -0.094802208 0.61000049 1.0879084e-38
0.61496502 -0.095309973 0.61000055 1.0879084e-38
0.62522018 -0.094800256 0.61000055 1.0879084e-38
0.6349653 -0.095099322 0.61000055 1.0879084e-38
0.64449382 -0.094955631 0.61000061 1.0879084e-38
0.6544413 -0.095086262 0.61000067 1.0879084e-38
0.66546845 -0.094956018 0.61000067 1.0879084e-38
0.67456526 -0.09490063 0.61000067 1.0879084e-38
0.68444729 -0.09523692 0.61000079 1.0879084e-38
0.69408673 -0.094919629 0.61000085 1.0879084e-38
0.70418811 -0.095033221 0.61000091 1.0879084e-38
0.71443599 -0.095147274 0.61000097 1.0879084e-38
0.72449881 -0.094823658 0.61000121 1.0879084e-38
0.7351132 -0.095169932 0.61000133 1.0879084e-38
0.74540454 -0.094607934 0.61000144 1.0879084e-38
0.75466061 -0.095043235 0.61027449 1.0879084e-38
0.76414138 -0.094906978 0.61000144 1.0879084e-38
0.77514631 -0.09518975 0.61017609 1.0879084e-38
0.78507262 -0.095450833 0.61000156 1.0879084e-38
0.79475915 -0.094596989 0.61000162 1.0879084e-38
0.80474627 -0.095374785 0.61000168 1.0879084e-38
0.81495053 -0.094891973 0.61000168 1.0879084e-38
0.82513154 -0.094928898 0.61000186 1.0879084e-38
0.83403814 -0.095610701 0.61000192 1.0879084e-38
0.84480333 -0.094591185 0.61000186 1.0879084e-38
0.85522932 -0.095159285 0.61000198 1.0879084e-38
0.86425251 -0.095195547 0.6100021 1.0879084e-38
0.49414563 -0.081186898 0.61181647 1.0879084e-38
0.54938895 -0.084652483 0.61000007 1.0879084e-38
0.56552631 -0.084832877 0.61000007 1.0879084e-38
0.57570487 -0.085193239 0.61000037 1.0879084e-38
0.58511484 -0.084900633 0.61000037 1.0879084e-38
0.59457672 -0.085049465 0.61000043 1.0879084e-38
0.60538167 -0.084882744 0.61000049 1.0879084e-38
0.61510831 -0.084990256 0.61000055 1.0879084e-38
0.62489545 -0.085104793 0.61000055 1.0879084e-38
0.63517112 -0.084838875 0.61000055 1.0879084e-38
0.64407659 -0.085142113 0.61000061 1.0879084e-38
0.65494061 -0.084932879 0.61000067 1.0879084e-38
0.66503811 -0.084989712 0.61000067 1.0879084e-38
0.67495507 -0.085003778 0.61000067 1.0879084e-38
0.68444735 -0.085082538 0.61000079 1.0879084e-38
0.6942479 -0.084909648 0.61000091 1.0879084e-38
0.70441556 -0.085176378 0.61000085 1.0879084e-38
0.71408939 -0.084811516 0.61000097 1.0879084e-38
0.72449875 -0.0853258 0.61000097 1.0879084e-38
0.73463815 -0.084696293 0.61000133 1.0879084e-38
0.74540466 -0.084970929 0.61000139 1.0879084e-38
0.75491005 -0.085308865 0.61000144 1.0879084e-38
0.76401228 -0.084671773 0.61000144 1.0879084e-38
0.77517116 -0.085203283 0.61000156 1.0879084e-38
0.78489763 -0.085247777 0.61000156 1.0879084e-38
0.79475915 -0.084631428 0.61000156 1.0879084e-38
0.80474609 -0.085342743 0.61000162 1.0879084e-38
0.81487358 -0.085052207 0.61000168 1.0879084e-38
0.82513154 -0.084761173 0.61000186 1.0879084e-38
0.83382684 -0.085240617 0.61019629 1.0879084e-38
0.84464467 -0.084822416 0.61000186 1.0879084e-38
0.8552292 -0.084791198 0.61000198 1.0879084e-38
0.86449128 -0.085426234 0.61000216 1.0879084e-38
0.45031819 -0.075419754 0.61078805 1.0879084e-38
0.54938895 -0.074653812 0.61000007 1.0879084e-38
0.56545615 -0.075048871 0.61000013 1.0879084e-38
0.57570499 -0.074984357 0.61000037 1.0879084e-38
0.5848785 -0.07529033 0.61000037 1.0879084e-38
0.59457684 -0.074689835 0.61000043 1.0879084e-38
0.60507208 -0.075160667 0.61000049 1.0879084e-38
0.61525136 -0.07466726 0.61000055 1.0879084e-38
0.6250667 -0.075195789 0.61000055 1.0879084e-38
0.63517106 -0.075045317 0.61000055 1.0879084e-38
0.64428514 -0.074810222 0.61000061 1.0879084e-38
0.65443242 -0.075037017 0.61000067 1.0879084e-38
0.66546828 -0.074925199 0.61000067 1.0879084e-38
0.67462683 -0.07495854 0.61000067 1.0879084e-38
0.68444729 -0.074928157 0.61000085 1.0879084e-38
0.69447219 -0.075120859 0.61000085 1.0879084e-38
0.7039606 -0.074929565 0.61000085 1.0879084e-38
0.71427047 -0.075126663 0.61000097 1.0879084e-38
0.72443724 -0.075552598 0.61000115 1.0879084e-38
0.73487568 -0.07558272 0.61000121 1.0879084e-38
0.7454046 -0.076297604 0.61000133 1.0879084e-38
0.75449777 -0.076649994 0.61000139 1.0879084e-38
0.76366222 -0.076952614 0.61000144 1.0879084e-38
0.77457869 -0.078419343 0.6100015 1.0879084e-38
0.78349769 -0.079873085 0.61000156 1.0879084e-38
0.81574851 -0.078443445 0.61000174 1.0879084e-38
0.82562345 -0.07547088 0.61000192 1.0879084e-38
0.8340382 -0.075156666 0.61000186 1.0879084e-38
0.84422833 -0.075342514 0.61000186 1.0879084e-38
0.85522926 -0.074423142 0.6100021 1.0879084e-38
0.86449128 -0.074996509 0.61000216 1.0879084e-38
0.549389 -0.067988031 0.61000001 1.0879084e-38
0.56538594 -0.065266527 0.61000007 1.0879084e-38
0.57570511 -0.064775474 0.61000037 1.0879084e-38
0.58506912 -0.065411277 0.61000037 1.0879084e-38
0.59480458 -0.064652942 0.61000043 1.0879084e-38
0.605304 -0.065044291 0.61000043 1.0879084e-38
0.61495173 -0.065059565 0.61000049 1.0879084e-38
0.62522012 -0.064754464 0.61000055 1.0879084e-38
0.63517112 -0.06525176 0.61000055 1.0879084e-38
0.64428508 -0.064949915 0.61000061 1.0879084e-38
0.6548515 -0.06488397 0.61000067 1.0879084e-38
0.66503811 -0.064965203 0.61000067 1.0879084e-38
0.67478347 -0.065085776 0.61000067 1.0879084e-38
0.68460578 -0.064983852 0.61000079 1.0879084e-38
0.69402361 -0.064949661 0.61000085 1.0879084e-38
0.70442629 -0.064789958 0.61074728 1.0879083e-38
0.71336383 -0.066719659 0.61000109 1.0879084e-38
0.72064012 -0.069880083 0.61000109 1.0879084e-38
0.82808512 -0.068667777 0.61000186 1.0879084e-38
0.83493412 -0.066206396 0.61000198 1.0879084e-38
0.84456474 -0.065525249 0.61000186 1.0879084e-38
0.85546553 -0.064705506 0.61000204 1.0879084e-38
0.8644914 -0.064566776 0.61000216 1.0879084e-38
0.5593788 -0.059467614 0.61000001 1.0879084e-38
0.56560588 -0.05574207 0.61000013 1.0879084e-38
0.57570499 -0.054566603 0.61000025 1.0879084e-38
0.58506912 -0.055127602 0.61000037 1.0879084e-38
0.59434044 -0.055202644 0.61000037 1.0879084e-38
0.60530388 -0.054598976 0.61000049 1.0879084e-38
0.61510831 -0.055173304 0.61000055 1.0879084e-38
0.62489545 -0.055066347 0.61000055 1.0879084e-38
0.63531858 -0.054769371 0.61000055 1.0879084e-38
0.64447343 -0.05490971 0.61023217 1.0879084e-38
0.65451235 -0.054979641 0.61000067 1.0879084e-38
0.66542232 -0.055128425 0.61000073 1.0879084e-38
0.67488515 -0.054919485 0.61000639 1.0878724e-38
0.68427378 -0.054872878 0.61000073 1.0879084e-38
0.69440806 -0.054918334 0.61055088 1.0693971e-38
0.70352399 -0.055893853 0.61093771 1.05103e-38
0.84607828 -0.057363153 0.61000198 1.0879084e-38
0.85522902 -0.055759318 0.61000204 1.0879084e-38
0.86473042 -0.054789856 0.6100021 1.0879084e-38
0.57584721 -0.044511314 0.61000037 1.0879084e-38
0.58506912 -0.044843923 0.61000037 1.0879084e-38
0.59457666 -0.045337573 0.61000043 1.0879084e-38
0.60547054 -0.044831105 0.61000043 1.0879084e-38
0.61510831 -0.044649672 0.61000055 1.0879084e-38
0.6250667 -0.045153461 0.61000055 1.0879084e-38
0.63500959 -0.045019977 0.61000055 1.0879084e-38
0.64444917 -0.044980746 0.61000061 1.0879084e-38
0.65474993 -0.044717778 0.61006099 1.0879084e-38
0.66509885 -0.045159765 0.61000067 1.0879084e-38
0.67478353 -0.044918548 0.61000073 1.0879084e-38
0.68462127 -0.04513216 0.61000079 1.0879084e-38
0.69373786 -0.045196407 0.61164433 1.0879084e-38
0.70043844 -0.048032746 0.61000097 1.0879084e-38
0.85830039 -0.047603101 0.61000204 1.0879084e-38
0.86426926 -0.045485079 0.6100021 1.0879084e-38
0.55797261 -0.033203293 0.61000007 1.0879084e-38
0.56545603 -0.035386402 0.61000007 1.0879084e-38
0.57570553 -0.034998376 0.61000031 1.0879084e-38
0.58506912 -0.034560237 0.61000037 1.0879084e-38
0.59457678 -0.03497795 0.61000043 1.0879084e-38
0.60515457 -0.035292078 0.61000043 1.0879084e-38
0.61510837 -0.035003006 0.61000049 1.0879084e-38
0.62522018 -0.034708656 0.61000055 1.0879084e-38
0.63505858 -0.034921452 0.61026263 1.0786167e-38
0.64413542 -0.035167281 0.61000061 1.0879084e-38
0.6546911 -0.034909032 0.61000067 1.0879084e-38
0.66542232 -0.035098277 0.61000067 1.0879084e-38
0.67478347 -0.034834936 0.61000067 1.0879084e-38
0.68488282 -0.034820616 0.61163729 1.0787247e-38
0.69109374 -0.037891697 0.61217064 1.0694692e-38
0.85830039 -0.032020319 0.61000204 1.0879084e-38
0.86471283 -0.035222948 0.6100021 1.0879084e-38
0.549389 -0.025493687 0.61000001 1.0879084e-38
0.56545585 -0.025259396 0.61000007 1.0879084e-38
0.57556224 -0.025488967 0.61000037 1.0879084e-38
0.58525974 -0.024672313 0.61000037 1.0879084e-38
0.59457678 -0.024618318 0.61000043 1.0879084e-38
0.605304 -0.025003914 0.61000043 1.0879084e-38
0.61502355 -0.025517991 0.61024916 1.0879084e-38
0.62489551 -0.025027888 0.61000055 1.0879084e-38
0.63517106 -0.025187183 0.61000055 1.0879084e-38
0.6442852 -0.024612337 0.61000061 1.0879084e-38
0.65469128 -0.024972534 0.61000067 1.0879084e-38
0.66509879 -0.025134366 0.61000067 1.0879084e-38
0.67556345 -0.024291731 0.61149132 1.0879083e-38
0.6820761 -0.026371304 0.61231804 1.0787247e-38
0.84911132 -0.021374894 0.61000198 1.0879084e-38
0.85544837 -0.024367275 0.61000204 1.0879084e-38
0.8644914 -0.024933802 0.61000216 1.0879084e-38
0.39353061 -0.018075358 0.61282581 1.0786889e-38
0.549389 -0.01299535 0.61000001 1.0879084e-38
0.55527484 -0.014925899 0.61031353 1.0786889e-38
0.56545597 -0.015132383 0.61000007 1.0879084e-38
0.57570487 -0.015432563 0.61000037 1.0879084e-38
0.5848785 -0.015311081 0.61000037 1.0879084e-38
0.59474075 -0.014926811 0.61000037 1.0879084e-38
0.60530388 -0.014558603 0.61000049 1.0879084e-38
0.61510843 -0.014832713 0.61000055 1.0879084e-38
0.62506682 -0.015111128 0.61000055 1.0879084e-38
0.635171 -0.015393619 0.61000055 1.0879084e-38
0.64428508 -0.014752038 0.61000061 1.0879084e-38
0.65469116 -0.015036042 0.61000067 1.0879084e-38
0.66525322 -0.0153243 0.61000067 1.0879084e-38
0.67384452 -0.015500621 0.61237985 1.097092e-38
0.84690338 -0.014282074 0.61000198 1.0879084e-38
0.85522938 -0.014288286 0.6100021 1.0879084e-38
0.86449128 -0.014504071 0.61000216 1.0879084e-38
0.549389 -0.0088292416 0.61000001 1.0879084e-38
0.56545597 -0.0050053736 0.61000007 1.0879084e-38
0.57570487 -0.0052236873 0.61000025 1.0879084e-38
0.58506906 -0.0054231542 0.61000037 1.0879084e-38
0.59442979 -0.0054732133 0.61000043 1.0879084e-38
0.60530394 -0.0049837362 0.61000049 1.0879084e-38
0.61510837 -0.0051860576 0.61000049 1.0879084e-38
0.62506676 -0.0045079533 0.61000055 1.0879084e-38
0.635171 -0.0047097323 0.61000055 1.0879084e-38
0.64428514 -0.0048917397 0.61000061 1.0879084e-38
0.65469116 -0.0050995457 0.61000067 1.0879084e-38
0.66549253 -0.0053354609 0.61206955 1.0878724e-38
0.67118883 -0.0072575985 0.61000085 1.0879084e-38
0.83702624 -0.001567902 0.61000192 1.0879084e-38
0.84483075 -0.0052015753 0.61000192 1.0879084e-38
0.8552292 -0.0049570189 0.61000204 1.0879084e-38
0.8644914 -0.0051173167 0.6100021 1.0879084e-38
0.41765645 0.0075309053 0.61888659 1.0786889e-38
0.47064292 0.009325604 0.61446589 1.0786889e-38
0.549389 0.0078352066 0.61000001 1.0786889e-38
0.56545603 0.0051216362 0.61000001 1.0879084e-38
0.57570493 0.0049851905 0.61000025 1.0879084e-38
0.58506906 0.0048605227 0.61000037 1.0879084e-38
0.59457672 0.0047339448 0.61000043 1.0879084e-38
0.60530394 0.0045911325 0.61000043 1.0879084e-38
0.61510831 0.0044606025 0.61000055 1.0879084e-38
0.62506658 0.0052116243 0.61000055 1.0879084e-38
0.63517112 0.0050838306 0.61000055 1.0879084e-38
0.6442852 0.0049685598 0.61000061 1.0879084e-38
0.65496725 0.005040748 0.61059952 1.0786529e-38
0.66257805 0.0037250568 0.61216074 1.0878723e-38
0.8348524 0.0055334847 0.61000198 1.0879084e-38
0.84456462 0.0044949343 0.61000186 1.0879084e-38
0.85522926 0.0043742503 0.61000198 1.0879084e-38
0.86449128 0.0042694393 0.61000216 1.0879084e-38
0.51723462 0.019853823 0.61931539 1.0786889e-38
0.549389 0.014500985 0.61000001 1.0786889e-38
0.56545597 0.01524865 0.61000007 1.0786889e-38
0.57570487 0.015194067 0.61000019 1.0879084e-38
0.58506906 0.015144203 0.61000037 1.0879084e-38
0.59457678 0.01509357 0.61000043 1.0879084e-38
0.605304 0.015036443 0.61000049 1.0879084e-38
0.61510831 0.014984231 0.61000055 1.0879084e-38
0.62506676 0.014931202 0.61000055 1.0879084e-38
0.635171 0.014877394 0.61000055 1.0879084e-38
0.64444506 0.015197452 0.61065757 1.0694332e-38
0.65374845 0.014128142 0.61122525 1.097092e-38
0.82644343 0.016005332 0.61000186 1.0879084e-38
0.83403814 0.014841069 0.61000192 1.0879084e-38
0.84456462 0.01479202 0.61000186 1.0879084e-38
0.85522932 0.014742327 0.61000198 1.0879084e-38
0.86449128 0.01469917 0.61000216 1.0879084e-38
0.57570493 0.025402943 0.61000007 1.0786889e-38
0.58506912 0.025427878 0.61000037 1.0786889e-38
0.59457678 0.025453191 0.61000043 1.0786889e-38
0.60530394 0.025481757 0.61000049 1.0879084e-38
0.61510843 0.02550786 0.61000055 1.0879084e-38
0.6250667 0.02553438 0.61000055 1.0879084e-38
0.63500965 0.024924371 0.61000055 1.0879084e-38
0.64482242 0.02468545 0.61188096 1.1063474e-38
0.65061933 0.022449709 0.61000067 1.0879084e-38
0.81769931 0.025895681 0.61057848 1.0879084e-38
0.8251316 0.025050299 0.61000186 1.0879084e-38
0.83403796 0.025068084 0.61000192 1.0879084e-38
0.84456474 0.025089109 0.61000186 1.0879084e-38
0.85522932 0.025110401 0.61000198 1.0879084e-38
0.86449128 0.025128899 0.61000216 1.0879084e-38
0.549389 0.031165432 0.61000001 1.0786889e-38
0.56545597 0.035502665 0.61000007 1.0786889e-38
0.57570499 0.035611823 0.61000025 1.0786889e-38
0.58487856 0.035319358 0.61000037 1.0786889e-38
0.59457678 0.034949519 0.61000037 1.0786889e-38
0.60530388 0.035056625 0.61000049 1.0786889e-38
0.61510837 0.035154525 0.61000049 1.0786889e-38
0.6250667 0.035253953 0.61000055 1.0786889e-38
0.6353184 0.034658957 0.61000055 1.0786889e-38
0.64285433 0.034216162 0.6125167 1.1063474e-38
0.8076213 0.039086968 0.61000174 1.0879084e-38
0.81535846 0.035469133 0.61000168 1.0879084e-38
0.82513154 0.035218026 0.61000186 1.0879084e-38
0.83403802 0.035295103 0.61000192 1.0879084e-38
0.84456456 0.03538619 0.61000186 1.0879084e-38
0.85522932 0.03547848 0.6100021 1.0879084e-38
0.86449128 0.03555863 0.61000216 1.0879084e-38
0.34112892 0.043184966 0.61417216 0
0.57554615 0.045162801 0.61000007 1.0786889e-38
0.58509046 0.044864412 0.61014879 1.0602852e-38
0.59457672 0.044445835 0.61000043 1.0786889e-38
0.60530394 0.044631496 0.61000049 1.0786889e-38
0.61510831 0.044801176 0.61000055 1.0786889e-38
0.62521356 0.044985261 0.61007333 1.0786889e-38
0.63534671 0.044967614 0.61039823 1.0786889e-38
0.64397198 0.045627519 0.61000061 1.0786889e-38
0.650967 0.048485015 0.61000067 1.0786889e-38
0.80552959 0.045996606 0.61000162 1.0879084e-38
0.81487381 0.045228709 0.61000162 1.0879084e-38
0.82513154 0.045385759 0.61000186 1.0879084e-38
0.83403814 0.045522116 0.61000192 1.0879084e-38
0.84456474 0.045683268 0.61000186 1.0879084e-38
0.85500991 0.045546379 0.61000204 1.0879084e-38
0.86449128 0.044945385 0.6100021 1.0879084e-38
0.41783732 0.056056131 0.61422843 1.0786889e-38
0.49391064 0.051521588 0.61981487 8.3064685e-39
0.54923218 0.056319796 0.61106843 1.0786889e-38
0.55612022 0.051948495 0.61000007 1.0786889e-38
0.56207043 0.05201903 0.61000007 1.0786889e-38
0.57742625 0.050680753 0.61000013 1.0786889e-38
0.58506906 0.051137075 0.61000019 1.0786889e-38
0.59457678 0.052215554 0.61000025 1.0786889e-38
0.6048044 0.052185349 0.61000031 1.0786889e-38
0.61565745 0.052853957 0.61000043 1.0786889e-38
0.62498373 0.055083442 0.61000055 1.0786889e-38
0.63517106 0.054941971 0.61000055 1.0786889e-38
0.6442852 0.055166446 0.61000061 1.0786889e-38
0.65452421 0.055273473 0.61030668 1.0602497e-38
0.66433263 0.057884973 0.61000067 1.0786889e-38
0.79795045 0.055704523 0.61000162 1.0786889e-38
0.80474627 0.055105686 0.61000168 1.0786889e-38
0.81487381 0.055328149 0.61000168 1.0786889e-38
0.82513154 0.055553485 0.61000186 1.0786889e-38
0.83403814 0.055749133 0.61000192 1.0786889e-38
0.84429789 0.055246934 0.61000192 1.0786889e-38
0.85546553 0.0547833 0.61000204 1.0786889e-38
0.8644914 0.054332141 0.61000216 1.0786889e-38
0.62804008 0.061555933 0.61000049 1.0786889e-38
0.635548 0.064197458 0.61000055 1.0786889e-38
0.64428526 0.065026738 0.61000061 1.0786889e-38
0.65453023 0.065197803 0.61000067 1.0786889e-38
0.66525322 0.06478636 0.61000067 1.0786889e-38
0.67392671 0.066106498 0.61000073 1.0786889e-38
0.68161041 0.068369254 0.61000085 1.0786889e-38
0.79523128 0.065196604 0.61000162 1.0786889e-38
0.80474609 0.065137714 0.61000168 1.0786889e-38
0.8148737 0.065427601 0.61000168 1.0786889e-38
0.8251316 0.065721214 0.6100018 1.0786889e-38
0.83380854 0.06533961 0.61000198 1.0786889e-38
0.84480333 0.064440697 0.61000186 1.0786889e-38
0.85513961 0.064467184 0.61042821 1.0786889e-38
0.86449116 0.06476187 0.61000216 1.0786889e-38
0.64514542 0.072455183 0.61000061 1.0786889e-38
0.65517664 0.074787855 0.61000067 1.0786889e-38
0.66525316 0.074800201 0.61000067 1.0786889e-38
0.67486024 0.075319037 0.61036986 1.0694693e-38
0.68425506 0.074805677 0.61000073 1.0786889e-38
0.69375455 0.07720241 0.61000097 1.0786889e-38
0.70418799 0.078175932 0.61000103 1.0786889e-38
0.71427059 0.078578621 0.61000109 1.0786889e-38
0.72394615 0.078829005 0.61000109 1.0786889e-38
0.73487568 0.078444883 0.61000121 1.0786889e-38
0.74540466 0.07885839 0.61000127 1.0786889e-38
0.75474197 0.079225108 0.61000133 1.0786889e-38
0.76420647 0.079596817 0.61000139 1.0786889e-38
0.77596742 0.077461928 0.61169064 1.0786889e-38
0.78573722 0.075685993 0.61000156 1.0786889e-38
0.79475915 0.074817412 0.61000162 1.0786889e-38
0.80474627 0.075169735 0.61000168 1.0786889e-38
0.8148737 0.07552705 0.61000168 1.0786889e-38
0.82492065 0.075590424 0.61000186 1.0786889e-38
0.8342514 0.074456625 0.61000198 1.0786889e-38
0.84456474 0.074515134 0.61000186 1.0786889e-38
0.85522938 0.074877173 0.6100021 1.0786889e-38
0.8644914 0.075191602 0.61000216 1.0786889e-38
0.46164602 0.084903486 0.61831057 8.3064685e-39
0.49181026 0.087462999 0.61997104 8.3064685e-39
0.65857792 0.081488088 0.61000067 1.0786889e-38
0.66588998 0.08344321 0.61000067 1.0786889e-38
0.67478341 0.085251756 0.61000067 1.0786889e-38
0.68444729 0.08477249 0.61000079 1.0786889e-38
0.69408685 0.085006192 0.61000079 1.0786889e-38
0.70418805 0.084729776 0.61000091 1.0786889e-38
0.71427065 0.085179463 0.61000097 1.0786889e-38
0.72468293 0.085371733 0.61000109 1.0786889e-38
0.73470503 0.084925696 0.61000133 1.0786889e-38
0.74540454 0.084640607 0.61000133 1.0786889e-38
0.75474209 0.085044615 0.61000144 1.0786889e-38
0.76420647 0.085454114 0.61000144 1.0786889e-38
0.77523685 0.085180439 0.61000156 1.0786889e-38
0.78489769 0.084369399 0.61000156 1.0786889e-38
0.79475939 0.084782965 0.61000162 1.0786889e-38
0.80474627 0.085201763 0.61000168 1.0786889e-38
0.8148737 0.085626498 0.61000162 1.0786889e-38
0.82513189 0.085038505 0.61000174 1.0786889e-38
0.83403796 0.084384777 0.61000192 1.0786889e-38
0.84456474 0.084812202 0.61000186 1.0786889e-38
0.85522926 0.085245244 0.61000198 1.0786889e-38
0.86449128 0.085621327 0.61000216 1.0786889e-38
0.51224738 0.098247722 0.61949933 8.4901451e-39
0.67646205 0.091570333 0.61000085 1.0786889e-38
0.68494797 0.094411232 0.61000085 1.0786889e-38
0.69442433 0.09518522 0.61000085 1.0786889e-38
0.70418811 0.095028698 0.61000085 1.0786889e-38
0.71410382 0.0944563 0.61003655 1.0786889e-38
0.72449881 0.095133491 0.61000097 1.0786889e-38
0.73506254 0.095400833 0.61000127 1.0786889e-38
0.7451635 0.094790287 0.61000133 1.0786889e-38
0.75474197 0.094743803 0.61000144 1.0786889e-38
0.76420641 0.095216289 0.61000144 1.0786889e-38
0.77536881 0.095491759 0.6100015 1.0786889e-38
0.78489774 0.094269298 0.61000156 1.0786889e-38
0.79475927 0.094748512 0.61000162 1.0786889e-38
0.80474609 0.095233798 0.61000168 1.0786889e-38
0.81487381 0.095725931 0.61000168 1.0786889e-38
0.8253423 0.094490759 0.61000186 1.0786889e-38
0.83403802 0.094611794 0.61000192 1.0786889e-38
0.84456462 0.095109284 0.61000186 1.0786889e-38
0.85522932 0.095613316 0.6100021 1.0786889e-38
0.8644914 0.095008075 0.6100021 1.0786889e-38
0.42743561 0.10698086 0.6144529 1.0786889e-38
0.48599115 0.10327053 0.61560667 1.0786889e-38
0.69548172 0.10295254 0.61000091 1.0786889e-38
0.70438546 0.10514274 0.61000091 1.0786889e-38
