# .PCD v0.7 - Point Cloud Data file format
VERSION 0.7
FIELDS x y z rgb
SIZE 4 4 4 4
TYPE F F F F
COUNT 1 1 1 1
WIDTH 983
HEIGHT 1
VIEWPOINT 0 0 0 1 0 0 0
POINTS 983
DATA ascii
2.2403615 1.608907 -8.3446503e-06 4.978564e-39
2.2403615 1.6042327 -8.3446503e-06 4.978564e-39
2.2403615 1.5995585 -8.3446503e-06 4.978564e-39
2.2403615 1.5948842 -8.3446503e-06 4.978564e-39
2.2403615 1.552816 -8.3446503e-06 4.978564e-39
2.2403615 1.5481417 -8.3446503e-06 4.978564e-39
2.2403615 1.5434675 -8.3446503e-06 4.978564e-39
2.2403615 1.515422 -8.3446503e-06 4.978564e-39
2.2403615 1.5107478 -8.3446503e-06 4.978564e-39
2.2403615 1.5060735 -8.3446503e-06 4.978564e-39
2.2403615 1.5013993 -8.3446503e-06 4.978564e-39
2.2403615 1.496725 -8.3446503e-06 4.978564e-39
2.240365 1.4920533 -1.0609627e-05 4.978564e-39
2.2403615 1.4873766 -8.3446503e-06 4.978564e-39
2.2403615 1.4827023 -8.3446503e-06 4.978564e-39
2.2403615 1.4125886 -8.3446503e-06 4.978564e-39
2.2403615 1.4079143 -8.3446503e-06 4.978564e-39
2.2403615 1.4032401 -8.3446503e-06 4.978564e-39
2.2403615 1.3985658 -8.3446503e-06 4.978564e-39
2.2403615 1.3705204 -8.3446503e-06 4.978564e-39
2.2403615 1.365846 -8.3446503e-06 4.978564e-39
2.2403615 1.3611718 -8.3446503e-06 4.978564e-39
2.2403634 1.3564987 -9.4175339e-06 4.978564e-39
2.2403634 1.305082 -9.4175339e-06 4.978564e-39
2.2403634 1.3004076 -9.4175339e-06 4.978564e-39
2.2403634 1.2957335 -9.4175339e-06 4.978564e-39
2.2403634 1.2910591 -9.4175339e-06 4.978564e-39
2.2403634 1.2863849 -9.4175339e-06 4.978564e-39
2.2403634 1.2817106 -9.4175339e-06 4.978564e-39
2.2403634 1.2536652 -9.4175339e-06 4.978564e-39
2.2403634 1.2489909 -9.4175339e-06 4.978564e-39
2.2403634 1.2443167 -9.4175339e-06 4.978564e-39
2.2403634 1.2396424 -9.4175339e-06 4.978564e-39
2.2403634 1.2209454 -9.4175339e-06 4.978564e-39
2.2403634 1.2022485 -9.4175339e-06 4.978564e-39
2.2403634 1.1975741 -9.4175339e-06 4.978564e-39
2.2403634 1.1928999 -9.4175339e-06 4.978564e-39
2.2403634 1.1882256 -9.4175339e-06 4.978564e-39
2.2403634 1.1835514 -9.4175339e-06 4.978564e-39
2.2403634 1.1788771 -9.4175339e-06 4.978564e-39
2.2403634 1.1508317 -9.4175339e-06 4.978564e-39
2.2403634 1.1461574 -9.4175339e-06 4.978564e-39
2.2403634 1.1414832 -9.4175339e-06 4.978564e-39
2.2403634 1.1368089 -9.4175339e-06 4.978564e-39
2.2403615 0.94983804 -8.3446503e-06 4.978564e-39
2.2403615 0.94516385 -8.3446503e-06 4.978564e-39
2.2403615 0.94048959 -8.3446503e-06 4.978564e-39
2.2403615 0.93581533 -8.3446503e-06 4.978564e-39
2.2403615 0.89842135 -8.3446503e-06 4.978564e-39
2.2403615 0.89374709 -8.3446503e-06 4.978564e-39
2.2403615 0.88907284 -8.3446503e-06 4.978564e-39
2.2403615 0.88439858 -8.3446503e-06 4.978564e-39
2.2403615 0.87972438 -8.3446503e-06 4.978564e-39
2.2403615 0.87505013 -8.3446503e-06 4.978564e-39
2.2403615 0.87037587 -8.3446503e-06 4.978564e-39
2.2403615 0.78623939 -8.3446503e-06 4.978564e-39
2.2403615 0.78156513 -8.3446503e-06 4.978564e-39
2.2403615 0.77689093 -8.3446503e-06 4.978564e-39
2.2403615 0.77221668 -8.3446503e-06 4.978564e-39
2.2403615 0.76754242 -8.3446503e-06 4.978564e-39
2.2403612 0.66470891 -8.225441e-06 4.978564e-39
2.2403612 0.66003466 -8.225441e-06 4.978564e-39
2.2403612 0.6553604 -8.225441e-06 4.978564e-39
2.2403612 0.64601195 -8.225441e-06 4.978564e-39
2.2403612 0.64133769 -8.225441e-06 4.978564e-39
2.2403612 0.63666344 -8.225441e-06 4.978564e-39
2.2403612 0.63198918 -8.225441e-06 4.978564e-39
2.2403612 0.62731493 -8.225441e-06 4.978564e-39
2.2403612 0.62264067 -8.225441e-06 4.978564e-39
2.2403593 0.5665493 -7.0333481e-06 4.978564e-39
2.2403612 0.55252701 -8.225441e-06 4.978564e-39
2.2403612 0.54785275 -8.225441e-06 4.978564e-39
2.2403612 0.5431785 -8.225441e-06 4.978564e-39
2.2403612 0.53850424 -8.225441e-06 4.978564e-39
2.2403612 0.53382999 -8.225441e-06 4.978564e-39
2.2403612 0.51045877 -8.225441e-06 4.978564e-39
2.2403612 0.46839058 -8.225441e-06 4.978564e-39
2.2403612 0.46371633 -8.225441e-06 4.978564e-39
2.2403612 0.45904207 -8.225441e-06 4.978564e-39
2.2403612 0.45436782 -8.225441e-06 4.978564e-39
2.2403612 0.35620862 -8.225441e-06 4.978564e-39
2.2403612 0.35153437 -8.225441e-06 4.978564e-39
2.2403612 0.34686011 -8.225441e-06 4.978564e-39
2.2403612 0.34218591 -8.225441e-06 4.978564e-39
2.2403612 0.33751166 -8.225441e-06 4.978564e-39
2.2403593 0.30011743 -7.0333481e-06 4.978564e-39
2.2403593 0.29544318 -7.0333481e-06 4.978564e-39
2.2403593 0.29076892 -7.0333481e-06 4.978564e-39
2.2403593 0.28609473 -7.0333481e-06 4.978564e-39
2.2403593 0.28142047 -7.0333481e-06 4.978564e-39
2.2403593 0.25337499 -7.0333481e-06 4.978564e-39
2.2403593 0.24870072 -7.0333481e-06 4.978564e-39
2.2403593 0.24402648 -7.0333481e-06 4.978564e-39
2.2403593 0.23935224 -7.0333481e-06 4.978564e-39
2.2403593 0.234678 -7.0333481e-06 4.978564e-39
2.2403593 0.22065528 -7.0333481e-06 4.978564e-39
2.2403593 0.21598102 -7.0333481e-06 4.978564e-39
2.2403593 0.21130678 -7.0333481e-06 4.978564e-39
2.2403593 0.19260982 -7.0333481e-06 4.978564e-39
2.2403593 0.18793558 -7.0333481e-06 4.978564e-39
2.2403593 0.18326132 -7.0333481e-06 4.978564e-39
2.2403593 0.17858708 -7.0333481e-06 4.978564e-39
2.2403574 0.17391272 -5.8412552e-06 4.978564e-39
2.2403574 0.16923848 -5.8412552e-06 4.978564e-39
2.2403574 0.16456424 -5.8412552e-06 4.978564e-39
2.2403574 0.15989 -5.8412552e-06 4.978564e-39
2.2403593 0.14586739 -7.0333481e-06 4.978564e-39
2.2403593 0.14119315 -7.0333481e-06 4.978564e-39
2.2403593 0.1365189 -7.0333481e-06 4.978564e-39
2.2403593 0.13184467 -7.0333481e-06 4.978564e-39
2.2403612 -0.027079646 -8.225441e-06 4.978564e-39
2.2403612 -0.031753894 -8.225441e-06 4.978564e-39
2.2403612 -0.036428139 -8.225441e-06 4.978564e-39
2.2403612 -0.041102387 -8.225441e-06 4.978564e-39
2.2403612 -0.045776635 -8.225441e-06 4.978564e-39
2.2403612 -0.050450884 -8.225441e-06 4.978564e-39
2.2403612 -0.15328433 -8.225441e-06 4.978564e-39
2.2403612 -0.15795857 -8.225441e-06 4.978564e-39
2.2403612 -0.16263281 -8.225441e-06 4.978564e-39
2.2403612 -0.16730706 -8.225441e-06 4.978564e-39
2.2403612 -0.1719813 -8.225441e-06 4.978564e-39
2.2403574 -0.23742031 -5.8412552e-06 4.978564e-39
2.2403574 -0.24209453 -5.8412552e-06 4.978564e-39
2.2403612 -0.24676923 -8.225441e-06 4.978564e-39
2.2403612 -0.25144351 -8.225441e-06 4.978564e-39
2.2403612 -0.2561177 -8.225441e-06 4.978564e-39
2.2403612 -0.26079196 -8.225441e-06 4.978564e-39
2.2403612 -0.27481472 -8.225441e-06 4.978564e-39
2.2403612 -0.27948898 -8.225441e-06 4.978564e-39
2.2403612 -0.28416318 -8.225441e-06 4.978564e-39
2.2403612 -0.28883743 -8.225441e-06 4.978564e-39
2.2403612 -0.29351169 -8.225441e-06 4.978564e-39
2.2403612 -0.29818594 -8.225441e-06 4.978564e-39
2.2403612 -0.3028602 -8.225441e-06 4.978564e-39
2.2403612 -0.30753446 -8.225441e-06 4.978564e-39
2.2403612 -0.31220871 -8.225441e-06 4.978564e-39
2.2403612 -0.46645886 -8.225441e-06 4.978564e-39
2.2403612 -0.47113311 -8.225441e-06 4.978564e-39
2.2403612 -0.47580731 -8.225441e-06 4.978564e-39
2.2403572 -0.63473058 -5.7220459e-06 4.978564e-39
2.2403591 -0.70017052 -6.9141388e-06 4.978564e-39
2.2403591 -0.70484477 -6.9141388e-06 4.978564e-39
2.2403591 -0.70951903 -6.9141388e-06 4.978564e-39
2.2403591 -0.71419328 -6.9141388e-06 4.978564e-39
2.2403591 -0.71886748 -6.9141388e-06 4.978564e-39
2.2403572 -0.76093501 -5.7220459e-06 4.978564e-39
2.2403572 -0.76560926 -5.7220459e-06 4.978564e-39
2.2403572 -0.77028352 -5.7220459e-06 4.978564e-39
2.2403591 -0.84039783 -6.9141388e-06 4.978564e-39
2.2403591 -0.84507203 -6.9141388e-06 4.978564e-39
2.2403591 -0.84974629 -6.9141388e-06 4.978564e-39
2.2403591 -0.85442054 -6.9141388e-06 4.978564e-39
2.2403591 -0.8590948 -6.9141388e-06 4.978564e-39
2.2403591 -0.93388265 -6.9141388e-06 4.978564e-39
2.2403591 -0.93855691 -6.9141388e-06 4.978564e-39
2.2403591 -0.94323117 -6.9141388e-06 4.978564e-39
2.2403591 -0.94790542 -6.9141388e-06 4.978564e-39
2.2403591 -0.95257962 -6.9141388e-06 4.978564e-39
2.2403591 -0.95725387 -6.9141388e-06 4.978564e-39
2.2403591 -0.999322 -6.9141388e-06 4.978564e-39
2.2403591 -1.0039963 -6.9141388e-06 4.978564e-39
2.240361 -1.0554138 -7.9870224e-06 4.978564e-39
2.240361 -1.0600882 -7.9870224e-06 4.978564e-39
2.240361 -1.0647624 -7.9870224e-06 4.978564e-39
2.240361 -1.0694367 -7.9870224e-06 4.978564e-39
2.240361 -1.1208533 -7.9870224e-06 4.978564e-39
2.240361 -1.1255276 -7.9870224e-06 4.978564e-39
2.240361 -1.1302018 -7.9870224e-06 4.978564e-39
2.240361 -1.134876 -7.9870224e-06 4.978564e-39
2.240361 -1.2330352 -7.9870224e-06 4.978564e-39
2.240361 -1.2377095 -7.9870224e-06 4.978564e-39
2.240361 -1.2423837 -7.9870224e-06 4.978564e-39
2.240361 -1.247058 -7.9870224e-06 4.978564e-39
2.2403591 -1.3171705 -6.9141388e-06 4.978564e-39
2.2403591 -1.3218448 -6.9141388e-06 4.978564e-39
2.2403591 -1.326519 -6.9141388e-06 4.978564e-39
2.2403591 -1.3311933 -6.9141388e-06 4.978564e-39
2.2403591 -1.3358675 -6.9141388e-06 4.978564e-39
2.2403591 -1.3639129 -6.9141388e-06 4.978564e-39
2.2403591 -1.3685873 -6.9141388e-06 4.978564e-39
2.2403591 -1.3732615 -6.9141388e-06 4.978564e-39
2.2403591 -1.3779358 -6.9141388e-06 4.978564e-39
2.2403591 -1.38261 -6.9141388e-06 4.978564e-39
2.2403591 -1.3872842 -6.9141388e-06 4.978564e-39
2.2403591 -1.3919585 -6.9141388e-06 4.978564e-39
2.2403591 -1.4667463 -6.9141388e-06 4.978564e-39
2.2403591 -1.4714205 -6.9141388e-06 4.978564e-39
2.2403591 -1.4760948 -6.9141388e-06 4.978564e-39
2.2403591 -1.480769 -6.9141388e-06 4.978564e-39
2.2403591 -1.4854434 -6.9141388e-06 4.978564e-39
2.2403591 -1.4901175 -6.9141388e-06 4.978564e-39
2.2403591 -1.4947917 -6.9141388e-06 4.978564e-39
2.2403591 -1.6116478 -6.9141388e-06 4.978564e-39
2.2403591 -1.616322 -6.9141388e-06 4.978564e-39
2.2403591 -1.6209964 -6.9141388e-06 4.978564e-39
2.2403591 -1.6256706 -6.9141388e-06 4.978564e-39
2.2403591 -1.7425267 -6.9141388e-06 4.978564e-39
2.2403591 -1.7472008 -6.9141388e-06 4.978564e-39
2.2403591 -1.7518752 -6.9141388e-06 4.978564e-39
2.2403591 -1.7565494 -6.9141388e-06 4.978564e-39
2.2403591 -1.7612236 -6.9141388e-06 4.978564e-39
2.2403572 -1.7986161 -5.7220459e-06 4.978564e-39
2.2403572 -1.8032902 -5.7220459e-06 4.978564e-39
2.2403591 -1.9201479 -6.9141388e-06 4.978564e-39
2.2403591 -1.9248221 -6.9141388e-06 4.978564e-39
2.2403569 -1.9294945 -5.6028366e-06 4.978564e-39
2.2403569 -2.1071155 -5.6028366e-06 4.978564e-39
2.2403569 -2.1117897 -5.6028366e-06 4.978564e-39
2.2403569 -2.1164639 -5.6028366e-06 4.978564e-39
2.2403569 -2.1211381 -5.6028366e-06 4.978564e-39
2.2403569 -2.1258125 -5.6028366e-06 4.978564e-39
2.2403569 -2.1304867 -5.6028366e-06 4.978564e-39
2.2403569 -2.1351609 -5.6028366e-06 4.978564e-39
2.2403569 -2.1398351 -5.6028366e-06 4.978564e-39
2.240355 -2.2520149 -4.529953e-06 4.978564e-39
2.2403588 -2.2566929 -6.6757202e-06 4.978564e-39
2.2403588 -2.2613673 -6.6757202e-06 4.978564e-39
2.2403588 -2.2940869 -6.6757202e-06 4.978564e-39
2.2403588 -2.2987611 -6.6757202e-06 4.978564e-39
2.2403588 -2.3034353 -6.6757202e-06 4.978564e-39
2.2403588 -2.3081098 -6.6757202e-06 4.978564e-39
2.2316825 2.3230395 -8.9406967e-06 4.978564e-39
2.2316825 2.3183768 -8.9406967e-06 4.978564e-39
2.2316825 2.313714 -8.9406967e-06 4.978564e-39
2.2316825 2.3090513 -8.9406967e-06 4.978564e-39
2.2316825 2.3043888 -8.9406967e-06 4.978564e-39
2.2316825 2.1645079 -8.9406967e-06 4.978564e-39
2.2316825 2.1598451 -8.9406967e-06 4.978564e-39
2.2316825 2.1551826 -8.9406967e-06 4.978564e-39
2.2316825 2.1505198 -8.9406967e-06 4.978564e-39
2.2316844 2.0945692 -1.013279e-05 4.978564e-39
2.2316844 2.0899065 -1.013279e-05 4.978564e-39
2.2316844 2.0852437 -1.013279e-05 4.978564e-39
2.2316844 2.0805812 -1.013279e-05 4.978564e-39
2.2316864 1.9453644 -1.1205673e-05 4.978564e-39
2.2316825 1.9406985 -8.9406967e-06 4.978564e-39
2.2316825 1.9220476 -8.9406967e-06 4.978564e-39
2.2316825 1.917385 -8.9406967e-06 4.978564e-39
2.2316825 1.9127222 -8.9406967e-06 4.978564e-39
2.2316825 1.8987342 -8.9406967e-06 4.978564e-39
2.2316825 1.8940715 -8.9406967e-06 4.978564e-39
2.2316825 1.8894088 -8.9406967e-06 4.978564e-39
2.2316825 1.8847461 -8.9406967e-06 4.978564e-39
2.2316864 1.8148087 -1.1205673e-05 4.978564e-39
2.2316825 1.796155 -8.9406967e-06 4.978564e-39
2.2316825 1.7914922 -8.9406967e-06 4.978564e-39
2.2316825 1.7868296 -8.9406967e-06 4.978564e-39
2.2316825 1.7821668 -8.9406967e-06 4.978564e-39
2.2316825 1.7775042 -8.9406967e-06 4.978564e-39
2.2316825 1.7728415 -8.9406967e-06 4.978564e-39
2.2316825 1.7355399 -8.9406967e-06 4.978564e-39
2.2316825 1.7308773 -8.9406967e-06 4.978564e-39
2.2316825 1.7262145 -8.9406967e-06 4.978564e-39
2.2316804 1.6376219 -7.6293945e-06 4.978564e-39
2.2316804 1.6329591 -7.6293945e-06 4.978564e-39
2.2316804 1.6282965 -7.6293945e-06 4.978564e-39
2.2316804 1.6236337 -7.6293945e-06 4.978564e-39
2.2316844 1.5536962 -1.013279e-05 4.978564e-39
2.2316804 1.5490308 -7.6293945e-06 4.978564e-39
2.2316804 1.544368 -7.6293945e-06 4.978564e-39
2.2316804 1.5257173 -7.6293945e-06 4.978564e-39
2.2316804 1.5210546 -7.6293945e-06 4.978564e-39
2.2316804 1.5163919 -7.6293945e-06 4.978564e-39
2.2316804 1.5117292 -7.6293945e-06 4.978564e-39
2.2316804 1.5070665 -7.6293945e-06 4.978564e-39
2.2316804 1.4977412 -7.6293945e-06 4.978564e-39
2.2316804 1.4930785 -7.6293945e-06 4.978564e-39
2.2316804 1.4884158 -7.6293945e-06 4.978564e-39
2.2316804 1.4837531 -7.6293945e-06 4.978564e-39
2.2316804 1.4790905 -7.6293945e-06 4.978564e-39
2.2316844 1.4604422 -1.013279e-05 4.978564e-39
2.2316844 1.4557796 -1.013279e-05 4.978564e-39
2.2316844 1.4511168 -1.013279e-05 4.978564e-39
2.2316844 1.446454 -1.013279e-05 4.978564e-39
2.2316844 1.4417914 -1.013279e-05 4.978564e-39
2.2316823 1.4138139 -8.7022781e-06 4.978564e-39
2.2316823 1.4091512 -8.7022781e-06 4.978564e-39
2.2316823 1.4044886 -8.7022781e-06 4.978564e-39
2.2316823 1.3998258 -8.7022781e-06 4.978564e-39
2.2316823 1.3718497 -8.7022781e-06 4.978564e-39
2.2316823 1.367187 -8.7022781e-06 4.978564e-39
2.2316823 1.3625243 -8.7022781e-06 4.978564e-39
2.2316823 1.3578616 -8.7022781e-06 4.978564e-39
2.2316823 1.3531989 -8.7022781e-06 4.978564e-39
2.2316844 1.3019105 -1.013279e-05 4.978564e-39
2.2316842 1.2972476 -9.894371e-06 4.978564e-39
2.2316842 1.292585 -9.894371e-06 4.978564e-39
2.2316823 1.2879212 -8.7022781e-06 4.978564e-39
2.2316823 1.2832586 -8.7022781e-06 4.978564e-39
2.2316823 1.2552824 -8.7022781e-06 4.978564e-39
2.2316823 1.2506196 -8.7022781e-06 4.978564e-39
2.2316823 1.245957 -8.7022781e-06 4.978564e-39
2.2316842 1.2039937 -9.894371e-06 4.978564e-39
2.2316842 1.199331 -9.894371e-06 4.978564e-39
2.2316842 1.1946683 -9.894371e-06 4.978564e-39
2.2316842 1.1900057 -9.894371e-06 4.978564e-39
2.2316842 1.1853429 -9.894371e-06 4.978564e-39
2.2316842 1.1806803 -9.894371e-06 4.978564e-39
2.2316842 1.1760175 -9.894371e-06 4.978564e-39
2.2316842 1.1713548 -9.894371e-06 4.978564e-39
2.2316823 1.1060761 -8.7022781e-06 4.978564e-39
2.2316823 1.0874254 -8.7022781e-06 4.978564e-39
2.2316823 1.0827627 -8.7022781e-06 4.978564e-39
2.2316823 1.0781 -8.7022781e-06 4.978564e-39
2.2316823 1.0734373 -8.7022781e-06 4.978564e-39
2.2316842 1.0687755 -9.894371e-06 4.978564e-39
2.2316823 0.94754457 -8.7022781e-06 4.978564e-39
2.2316823 0.94288188 -8.7022781e-06 4.978564e-39
2.2316823 0.93821919 -8.7022781e-06 4.978564e-39
2.2316823 0.9335565 -8.7022781e-06 4.978564e-39
2.2316823 0.90558034 -8.7022781e-06 4.978564e-39
2.2316823 0.90091765 -8.7022781e-06 4.978564e-39
2.2316823 0.89625496 -8.7022781e-06 4.978564e-39
2.2316804 0.89159155 -7.6293945e-06 4.978564e-39
2.2316804 0.88692886 -7.6293945e-06 4.978564e-39
2.2316804 0.88226616 -7.6293945e-06 4.978564e-39
2.2316804 0.87760347 -7.6293945e-06 4.978564e-39
2.2316804 0.87294078 -7.6293945e-06 4.978564e-39
2.2316823 0.78435034 -8.7022781e-06 4.978564e-39
2.2316823 0.77968764 -8.7022781e-06 4.978564e-39
2.2316823 0.77502495 -8.7022781e-06 4.978564e-39
2.2316823 0.77036226 -8.7022781e-06 4.978564e-39
2.2316823 0.76569957 -8.7022781e-06 4.978564e-39
2.2316842 0.66312081 -9.894371e-06 4.978564e-39
2.2316842 0.65845811 -9.894371e-06 4.978564e-39
2.2316842 0.65379542 -9.894371e-06 4.978564e-39
2.2316842 0.64913273 -9.894371e-06 4.978564e-39
2.2316842 0.64447004 -9.894371e-06 4.978564e-39
2.2316842 0.63980734 -9.894371e-06 4.978564e-39
2.2316842 0.63514465 -9.894371e-06 4.978564e-39
2.2316804 0.63048095 -7.6293945e-06 4.978564e-39
2.2316804 0.60716748 -7.6293945e-06 4.978564e-39
2.2316804 0.60250479 -7.6293945e-06 4.978564e-39
2.2316804 0.5978421 -7.6293945e-06 4.978564e-39
2.2316804 0.5931794 -7.6293945e-06 4.978564e-39
2.2316804 0.58851671 -7.6293945e-06 4.978564e-39
2.2316804 0.57919133 -7.6293945e-06 4.978564e-39
2.2316804 0.57452863 -7.6293945e-06 4.978564e-39
2.2316804 0.56986594 -7.6293945e-06 4.978564e-39
2.2316804 0.56520325 -7.6293945e-06 4.978564e-39
2.2316804 0.56054062 -7.6293945e-06 4.978564e-39
2.2316804 0.54188985 -7.6293945e-06 4.978564e-39
2.2316842 0.51391453 -9.894371e-06 4.978564e-39
2.2316842 0.50925183 -9.894371e-06 4.978564e-39
2.2316842 0.50458914 -9.894371e-06 4.978564e-39
2.2316823 0.49992603 -8.7022781e-06 4.978564e-39
2.2316823 0.47194988 -8.7022781e-06 4.978564e-39
2.2316823 0.46728718 -8.7022781e-06 4.978564e-39
2.2316823 0.46262449 -8.7022781e-06 4.978564e-39
2.2316823 0.4579618 -8.7022781e-06 4.978564e-39
2.2316823 0.45329911 -8.7022781e-06 4.978564e-39
2.2316823 0.36004525 -8.7022781e-06 4.978564e-39
2.2316823 0.35538256 -8.7022781e-06 4.978564e-39
2.2316823 0.35071987 -8.7022781e-06 4.978564e-39
2.2316823 0.34605718 -8.7022781e-06 4.978564e-39
2.2316823 0.34139448 -8.7022781e-06 4.978564e-39
2.2316823 0.33673179 -8.7022781e-06 4.978564e-39
2.2316823 0.3320691 -8.7022781e-06 4.978564e-39
2.2316823 0.29943025 -8.7022781e-06 4.978564e-39
2.2316823 0.29476756 -8.7022781e-06 4.978564e-39
2.2316823 0.29010487 -8.7022781e-06 4.978564e-39
2.2316823 0.28544217 -8.7022781e-06 4.978564e-39
2.2316823 0.28077948 -8.7022781e-06 4.978564e-39
2.2316823 0.24814057 -8.7022781e-06 4.978564e-39
2.2316823 0.24347788 -8.7022781e-06 4.978564e-39
2.2316785 0.2388148 -6.3180923e-06 4.978564e-39
2.2316785 0.206176 -6.3180923e-06 4.978564e-39
2.2316785 0.20151332 -6.3180923e-06 4.978564e-39
2.2316785 0.19685063 -6.3180923e-06 4.978564e-39
2.2316785 0.19218795 -6.3180923e-06 4.978564e-39
2.2316785 0.18752526 -6.3180923e-06 4.978564e-39
2.2316785 0.18286258 -6.3180923e-06 4.978564e-39
2.2316785 0.17819989 -6.3180923e-06 4.978564e-39
2.2316785 0.17353721 -6.3180923e-06 4.978564e-39
2.2316785 0.16887452 -6.3180923e-06 4.978564e-39
2.2316785 0.16421184 -6.3180923e-06 4.978564e-39
2.2316785 0.1455611 -6.3180923e-06 4.978564e-39
2.2316785 0.14089842 -6.3180923e-06 4.978564e-39
2.2316823 0.13623594 -8.7022781e-06 4.978564e-39
2.2316823 0.13157324 -8.7022781e-06 4.978564e-39
2.2316823 0.12691054 -8.7022781e-06 4.978564e-39
2.2316804 0.028993981 -7.5101852e-06 4.978564e-39
2.2316804 0.024331292 -7.5101852e-06 4.978564e-39
2.2316804 -0.031620976 -7.5101852e-06 4.978564e-39
2.2316804 -0.036283664 -7.5101852e-06 4.978564e-39
2.2316804 -0.040946357 -7.5101852e-06 4.978564e-39
2.2316804 -0.045609042 -7.5101852e-06 4.978564e-39
2.2316804 -0.050271735 -7.5101852e-06 4.978564e-39
2.2316804 -0.05493442 -7.5101852e-06 4.978564e-39
2.2316804 -0.059597112 -7.5101852e-06 4.978564e-39
2.2316804 -0.12487477 -7.5101852e-06 4.978564e-39
2.2316821 -0.14818835 -8.7022781e-06 4.978564e-39
2.2316804 -0.1528509 -7.5101852e-06 4.978564e-39
2.2316804 -0.15751359 -7.5101852e-06 4.978564e-39
2.2316804 -0.16217628 -7.5101852e-06 4.978564e-39
2.2316804 -0.16683896 -7.5101852e-06 4.978564e-39
2.2316804 -0.17150165 -7.5101852e-06 4.978564e-39
2.2316804 -0.17616434 -7.5101852e-06 4.978564e-39
2.2316804 -0.23211659 -7.5101852e-06 4.978564e-39
2.2316804 -0.23677926 -7.5101852e-06 4.978564e-39
2.2316804 -0.24144195 -7.5101852e-06 4.978564e-39
2.2316804 -0.24610464 -7.5101852e-06 4.978564e-39
2.2316804 -0.25076735 -7.5101852e-06 4.978564e-39
2.2316804 -0.25543004 -7.5101852e-06 4.978564e-39
2.2316804 -0.26009274 -7.5101852e-06 4.978564e-39
2.231684 -0.2647559 -9.7751617e-06 4.978564e-39
2.231684 -0.27874398 -9.7751617e-06 4.978564e-39
2.231684 -0.28340667 -9.7751617e-06 4.978564e-39
2.2316804 -0.28806883 -7.5101852e-06 4.978564e-39
2.2316804 -0.29273152 -7.5101852e-06 4.978564e-39
2.2316804 -0.29739422 -7.5101852e-06 4.978564e-39
2.2316804 -0.30205691 -7.5101852e-06 4.978564e-39
2.2316804 -0.3067196 -7.5101852e-06 4.978564e-39
2.2316804 -0.31138229 -7.5101852e-06 4.978564e-39
2.2316804 -0.31604499 -7.5101852e-06 4.978564e-39
2.2316804 -0.38598531 -7.5101852e-06 4.978564e-39
2.2316804 -0.39064801 -7.5101852e-06 4.978564e-39
2.231684 -0.39531142 -9.7751617e-06 4.978564e-39
2.231684 -0.39997411 -9.7751617e-06 4.978564e-39
2.2316821 -0.43727529 -8.7022781e-06 4.978564e-39
2.2316821 -0.44193798 -8.7022781e-06 4.978564e-39
2.2316821 -0.44660068 -8.7022781e-06 4.978564e-39
2.2316821 -0.45126337 -8.7022781e-06 4.978564e-39
2.2316821 -0.46058875 -8.7022781e-06 4.978564e-39
2.2316821 -0.46525145 -8.7022781e-06 4.978564e-39
2.2316821 -0.46991414 -8.7022781e-06 4.978564e-39
2.2316821 -0.47457683 -8.7022781e-06 4.978564e-39
2.2316785 -0.59580582 -6.3180923e-06 4.978564e-39
2.2316785 -0.60046852 -6.3180923e-06 4.978564e-39
2.2316785 -0.60513121 -6.3180923e-06 4.978564e-39
2.2316785 -0.6097939 -6.3180923e-06 4.978564e-39
2.2316785 -0.6331073 -6.3180923e-06 4.978564e-39
2.2316785 -0.63777 -6.3180923e-06 4.978564e-39
2.2316785 -0.70771027 -6.3180923e-06 4.978564e-39
2.2316785 -0.71237296 -6.3180923e-06 4.978564e-39
2.2316802 -0.84292889 -7.5101852e-06 4.978564e-39
2.2316802 -0.84759152 -7.5101852e-06 4.978564e-39
2.2316802 -0.85225421 -7.5101852e-06 4.978564e-39
2.2316802 -0.8569169 -7.5101852e-06 4.978564e-39
2.2316802 -0.8615796 -7.5101852e-06 4.978564e-39
2.2316802 -0.90354383 -7.5101852e-06 4.978564e-39
2.2316821 -0.93152076 -8.7022781e-06 4.978564e-39
2.2316821 -0.93618345 -8.7022781e-06 4.978564e-39
2.2316802 -0.94084531 -7.5101852e-06 4.978564e-39
2.2316802 -0.945508 -7.5101852e-06 4.978564e-39
2.2316802 -0.9501707 -7.5101852e-06 4.978564e-39
2.2316802 -0.95483339 -7.5101852e-06 4.978564e-39
2.2316802 -0.99213487 -7.5101852e-06 4.978564e-39
2.2316802 -0.9967975 -7.5101852e-06 4.978564e-39
2.2316802 -1.0014603 -7.5101852e-06 4.978564e-39
2.2316802 -1.0061229 -7.5101852e-06 4.978564e-39
2.2316802 -1.0107857 -7.5101852e-06 4.978564e-39
2.2316802 -1.0154483 -7.5101852e-06 4.978564e-39
2.2316802 -1.0527499 -7.5101852e-06 4.978564e-39
2.2316802 -1.0574125 -7.5101852e-06 4.978564e-39
2.2316821 -1.0620761 -8.7022781e-06 4.978564e-39
2.2316821 -1.0667388 -8.7022781e-06 4.978564e-39
2.2316802 -1.0714006 -7.5101852e-06 4.978564e-39
2.2316802 -1.0760633 -7.5101852e-06 4.978564e-39
2.2316802 -1.080726 -7.5101852e-06 4.978564e-39
2.2316802 -1.1180276 -7.5101852e-06 4.978564e-39
2.2316802 -1.1226902 -7.5101852e-06 4.978564e-39
2.2316802 -1.1273528 -7.5101852e-06 4.978564e-39
2.2316802 -1.1320156 -7.5101852e-06 4.978564e-39
2.2316802 -1.1366782 -7.5101852e-06 4.978564e-39
2.2316802 -1.1506664 -7.5101852e-06 4.978564e-39
2.2316802 -1.155329 -7.5101852e-06 4.978564e-39
2.2316782 -1.2299309 -6.1988831e-06 4.978564e-39
2.2316782 -1.2345935 -6.1988831e-06 4.978564e-39
2.2316782 -1.2392563 -6.1988831e-06 4.978564e-39
2.2316782 -1.2439189 -6.1988831e-06 4.978564e-39
2.2316782 -1.2485816 -6.1988831e-06 4.978564e-39
2.2316782 -1.3185219 -6.1988831e-06 4.978564e-39
2.2316782 -1.3231846 -6.1988831e-06 4.978564e-39
2.2316782 -1.3278472 -6.1988831e-06 4.978564e-39
2.2316782 -1.33251 -6.1988831e-06 4.978564e-39
2.2316782 -1.3651488 -6.1988831e-06 4.978564e-39
2.2316782 -1.3698114 -6.1988831e-06 4.978564e-39
2.2316782 -1.374474 -6.1988831e-06 4.978564e-39
2.2316782 -1.3791368 -6.1988831e-06 4.978564e-39
2.2316782 -1.4257636 -6.1988831e-06 4.978564e-39
2.2316782 -1.4304264 -6.1988831e-06 4.978564e-39
2.2316782 -1.4677278 -6.1988831e-06 4.978564e-39
2.2316782 -1.4723905 -6.1988831e-06 4.978564e-39
2.2316782 -1.4770532 -6.1988831e-06 4.978564e-39
2.2316782 -1.7008621 -6.1988831e-06 4.978564e-39
2.2316799 -1.7428277 -7.390976e-06 4.978564e-39
2.2316799 -1.7474904 -7.390976e-06 4.978564e-39
2.2316799 -1.752153 -7.390976e-06 4.978564e-39
2.2316799 -1.7568158 -7.390976e-06 4.978564e-39
2.2316799 -1.7614784 -7.390976e-06 4.978564e-39
2.2316799 -1.7894546 -7.390976e-06 4.978564e-39
2.2316799 -1.7941172 -7.390976e-06 4.978564e-39
2.2316799 -1.79878 -7.390976e-06 4.978564e-39
2.2316799 -1.8034426 -7.390976e-06 4.978564e-39
2.2316799 -1.8081053 -7.390976e-06 4.978564e-39
2.2316799 -1.8220934 -7.390976e-06 4.978564e-39
2.2316799 -1.8267561 -7.390976e-06 4.978564e-39
2.2316799 -1.8314188 -7.390976e-06 4.978564e-39
2.2316799 -1.8360814 -7.390976e-06 4.978564e-39
2.2316799 -1.9200099 -7.390976e-06 4.978564e-39
2.2316799 -1.9246725 -7.390976e-06 4.978564e-39
2.2316799 -1.9293352 -7.390976e-06 4.978564e-39
2.2316782 -2.1111782 -6.1988831e-06 4.978564e-39
2.2316782 -2.1158409 -6.1988831e-06 4.978564e-39
2.2316744 -2.1204998 -3.8146973e-06 4.978564e-39
2.2316744 -2.1251626 -3.8146973e-06 4.978564e-39
2.2316782 -2.1298289 -6.1988831e-06 4.978564e-39
2.2316782 -2.1344917 -6.1988831e-06 4.978564e-39
2.2316782 -2.1391542 -6.1988831e-06 4.978564e-39
2.2316782 -2.1438169 -6.1988831e-06 4.978564e-39
2.2316763 -2.2510569 -5.1259995e-06 4.978564e-39
2.2316763 -2.2557194 -5.1259995e-06 4.978564e-39
2.2316763 -2.2603822 -5.1259995e-06 4.978564e-39
2.2316782 -2.2650468 -6.1988831e-06 4.978564e-39
2.2316782 -2.2930229 -6.1988831e-06 4.978564e-39
2.2316782 -2.2976856 -6.1988831e-06 4.978564e-39
2.2316782 -2.3023481 -6.1988831e-06 4.978564e-39
2.2316782 -2.3070109 -6.1988831e-06 4.978564e-39
2.2316782 -2.3116736 -6.1988831e-06 4.978564e-39
2.2316782 -2.3163364 -6.1988831e-06 4.978564e-39
2.2316782 -2.3209989 -6.1988831e-06 4.978564e-39
2.2316782 -2.3256617 -6.1988831e-06 4.978564e-39
2.2230458 2.3173652 -9.059906e-06 4.978564e-39
2.2230458 2.3127139 -9.059906e-06 4.978564e-39
2.2230458 2.3080628 -9.059906e-06 4.978564e-39
2.2230458 2.2708533 -9.059906e-06 4.978564e-39
2.2230458 2.266202 -9.059906e-06 4.978564e-39
2.2230458 2.2615509 -9.059906e-06 4.978564e-39
2.2230458 2.2336435 -9.059906e-06 4.978564e-39
2.2230458 2.2289925 -9.059906e-06 4.978564e-39
2.2230458 2.2243412 -9.059906e-06 4.978564e-39
2.2230458 2.2196901 -9.059906e-06 4.978564e-39
2.2230458 2.2150385 -8.9406967e-06 4.978564e-39
2.2230458 2.2103875 -8.9406967e-06 4.978564e-39
2.2230458 2.2057362 -8.9406967e-06 4.978564e-39
2.2230458 2.1592243 -8.9406967e-06 4.978564e-39
2.2230458 2.1545732 -8.9406967e-06 4.978564e-39
2.223042 2.1266625 -6.5565109e-06 4.978564e-39
2.223042 2.1220112 -6.5565109e-06 4.978564e-39
2.2230458 2.1173635 -8.9406967e-06 4.978564e-39
2.2230458 2.1127124 -8.9406967e-06 4.978564e-39
2.2230458 2.1080611 -8.9406967e-06 4.978564e-39
2.2230458 2.0475955 -8.9406967e-06 4.978564e-39
2.2230437 1.9964306 -7.7486038e-06 4.978564e-39
2.2230437 1.9917794 -7.7486038e-06 4.978564e-39
2.2230458 1.9871299 -8.9406967e-06 4.978564e-39
2.2230458 1.9824787 -8.9406967e-06 4.978564e-39
2.2230458 1.9545716 -8.9406967e-06 4.978564e-39
2.2230458 1.9499204 -8.9406967e-06 4.978564e-39
2.2230458 1.9452692 -8.9406967e-06 4.978564e-39
2.2230458 1.940618 -8.9406967e-06 4.978564e-39
2.2230458 1.9359668 -8.9406967e-06 4.978564e-39
2.2230458 1.9313157 -8.9406967e-06 4.978564e-39
2.2230458 1.9266645 -8.9406967e-06 4.978564e-39
2.2230458 1.9220132 -8.9406967e-06 4.978564e-39
2.2230458 1.917362 -8.9406967e-06 4.978564e-39
2.2230456 1.9127108 -8.9406967e-06 4.978564e-39
2.2230456 1.9080596 -8.9406967e-06 4.978564e-39
2.2230456 1.8848037 -8.9406967e-06 4.978564e-39
2.2230456 1.8801525 -8.9406967e-06 4.978564e-39
2.2230456 1.8755013 -8.9406967e-06 4.978564e-39
2.2230437 1.8708485 -7.7486038e-06 4.978564e-39
2.2230456 1.8057333 -8.9406967e-06 4.978564e-39
2.2230456 1.8010821 -8.9406967e-06 4.978564e-39
2.2230456 1.7964309 -8.9406967e-06 4.978564e-39
2.2230456 1.7917798 -8.9406967e-06 4.978564e-39
2.2230456 1.7871286 -8.9406967e-06 4.978564e-39
2.2230456 1.7824774 -8.9406967e-06 4.978564e-39
2.2230456 1.7778262 -8.9406967e-06 4.978564e-39
2.2230456 1.773175 -8.9406967e-06 4.978564e-39
2.2230475 1.6661988 -1.013279e-05 4.978564e-39
2.2230475 1.6336404 -1.013279e-05 4.978564e-39
2.2230475 1.6289892 -1.013279e-05 4.978564e-39
2.2230475 1.624338 -1.013279e-05 4.978564e-39
2.2230475 1.6196868 -1.013279e-05 4.978564e-39
2.2230475 1.6150357 -1.013279e-05 4.978564e-39
2.2230437 1.6103818 -7.7486038e-06 4.978564e-39
2.2230437 1.6057307 -7.7486038e-06 4.978564e-39
2.2230437 1.6010795 -7.7486038e-06 4.978564e-39
2.2230437 1.5964283 -7.7486038e-06 4.978564e-39
2.2230437 1.5359627 -7.7486038e-06 4.978564e-39
2.2230437 1.5313115 -7.7486038e-06 4.978564e-39
2.2230437 1.5266603 -7.7486038e-06 4.978564e-39
2.2230437 1.5220091 -7.7486038e-06 4.978564e-39
2.2230437 1.5173579 -7.7486038e-06 4.978564e-39
2.2230437 1.5127068 -7.7486038e-06 4.978564e-39
2.2230437 1.5080556 -7.7486038e-06 4.978564e-39
2.2230437 1.494102 -7.7486038e-06 4.978564e-39
2.2230437 1.4894508 -7.7486038e-06 4.978564e-39
2.2230437 1.4847996 -7.7486038e-06 4.978564e-39
2.223042 1.4801472 -6.5565109e-06 4.978564e-39
2.223042 1.4754961 -6.5565109e-06 4.978564e-39
2.223042 1.4568913 -6.5565109e-06 4.978564e-39
2.2230456 1.4522425 -8.9406967e-06 4.978564e-39
2.2230456 1.4475913 -8.9406967e-06 4.978564e-39
2.2230456 1.4429401 -8.9406967e-06 4.978564e-39
2.2230456 1.3731722 -8.9406967e-06 4.978564e-39
2.2230456 1.368521 -8.9406967e-06 4.978564e-39
2.2230456 1.3638698 -8.9406967e-06 4.978564e-39
2.2230456 1.3592186 -8.9406967e-06 4.978564e-39
2.2230456 1.3545674 -8.9406967e-06 4.978564e-39
2.2230456 1.3499162 -8.9406967e-06 4.978564e-39
2.223042 1.3452628 -6.5565109e-06 4.978564e-39
2.223042 1.3406116 -6.5565109e-06 4.978564e-39
2.2230456 1.2941018 -8.9406967e-06 4.978564e-39
2.2230456 1.2894506 -8.9406967e-06 4.978564e-39
2.2230456 1.2847995 -8.9406967e-06 4.978564e-39
2.2230456 1.2615435 -8.9406967e-06 4.978564e-39
2.2230456 1.2568923 -8.9406967e-06 4.978564e-39
2.2230456 1.2522411 -8.9406967e-06 4.978564e-39
2.2230456 1.2475899 -8.9406967e-06 4.978564e-39
2.2230456 1.2429388 -8.9406967e-06 4.978564e-39
2.2230456 1.2382876 -8.9406967e-06 4.978564e-39
2.2230456 1.1406124 -8.9406967e-06 4.978564e-39
2.2230456 1.1127052 -8.9406967e-06 4.978564e-39
2.2230456 1.108054 -8.9406967e-06 4.978564e-39
2.2230456 1.1034029 -8.9406967e-06 4.978564e-39
2.2230456 1.0987517 -8.9406967e-06 4.978564e-39
2.2230456 1.0894493 -8.9406967e-06 4.978564e-39
2.2230437 1.0847971 -7.7486038e-06 4.978564e-39
2.2230437 1.080146 -7.7486038e-06 4.978564e-39
2.2230437 1.0754948 -7.7486038e-06 4.978564e-39
2.2230437 1.0708436 -7.7486038e-06 4.978564e-39
2.2230437 1.0661924 -7.7486038e-06 4.978564e-39
2.2230437 1.0615412 -7.7486038e-06 4.978564e-39
2.2230437 1.05689 -7.7486038e-06 4.978564e-39
2.2230456 0.98247176 -8.9406967e-06 4.978564e-39
2.2230456 0.97782058 -8.9406967e-06 4.978564e-39
2.2230437 0.9545638 -7.7486038e-06 4.978564e-39
2.2230437 0.94991261 -7.7486038e-06 4.978564e-39
2.2230437 0.94526142 -7.7486038e-06 4.978564e-39
2.2230456 0.90805262 -8.9406967e-06 4.978564e-39
2.2230456 0.90340143 -8.9406967e-06 4.978564e-39
2.2230456 0.89875025 -8.9406967e-06 4.978564e-39
2.2230456 0.89409906 -8.9406967e-06 4.978564e-39
2.2230456 0.88944787 -8.9406967e-06 4.978564e-39
2.2230456 0.88479668 -8.9406967e-06 4.978564e-39
2.2230456 0.88014549 -8.9406967e-06 4.978564e-39
2.2230456 0.8754943 -8.9406967e-06 4.978564e-39
2.2230456 0.85688949 -8.9406967e-06 4.978564e-39
2.2230456 0.8522383 -8.9406967e-06 4.978564e-39
2.2230456 0.84758711 -8.9406967e-06 4.978564e-39
2.2230456 0.84293592 -8.9406967e-06 4.978564e-39
2.2230456 0.83828473 -8.9406967e-06 4.978564e-39
2.2230437 0.82433039 -7.6293945e-06 4.978564e-39
2.2230437 0.8196792 -7.6293945e-06 4.978564e-39
2.2230437 0.81502801 -7.6293945e-06 4.978564e-39
2.2230437 0.78246969 -7.6293945e-06 4.978564e-39
2.2230437 0.7778185 -7.6293945e-06 4.978564e-39
2.2230437 0.77316731 -7.6293945e-06 4.978564e-39
2.2230437 0.76851612 -7.6293945e-06 4.978564e-39
2.2230437 0.76386493 -7.6293945e-06 4.978564e-39
2.2230437 0.70805061 -7.6293945e-06 4.978564e-39
2.2230437 0.70339942 -7.6293945e-06 4.978564e-39
2.2230437 0.69874823 -7.6293945e-06 4.978564e-39
2.2230418 0.69409651 -6.5565109e-06 4.978564e-39
2.2230418 0.68944532 -6.5565109e-06 4.978564e-39
2.2230418 0.67084056 -6.5565109e-06 4.978564e-39
2.2230418 0.66618937 -6.5565109e-06 4.978564e-39
2.2230418 0.66153818 -6.5565109e-06 4.978564e-39
2.2230418 0.65688699 -6.5565109e-06 4.978564e-39
2.2230437 0.65223634 -7.6293945e-06 4.978564e-39
2.2230437 0.64758515 -7.6293945e-06 4.978564e-39
2.2230437 0.60572439 -7.6293945e-06 4.978564e-39
2.2230437 0.60107321 -7.6293945e-06 4.978564e-39
2.2230437 0.59642202 -7.6293945e-06 4.978564e-39
2.2230437 0.59177083 -7.6293945e-06 4.978564e-39
2.2230437 0.58711964 -7.6293945e-06 4.978564e-39
2.2230437 0.58246845 -7.6293945e-06 4.978564e-39
2.2230437 0.57781726 -7.6293945e-06 4.978564e-39
2.2230437 0.57316607 -7.6293945e-06 4.978564e-39
2.2230437 0.56851488 -7.6293945e-06 4.978564e-39
2.2230418 0.56386322 -6.5565109e-06 4.978564e-39
2.2230418 0.55921203 -6.5565109e-06 4.978564e-39
2.2230453 0.51270103 -8.8214874e-06 4.978564e-39
2.2230453 0.50804985 -8.8214874e-06 4.978564e-39
2.2230453 0.50339866 -8.8214874e-06 4.978564e-39
2.2230453 0.49874747 -8.8214874e-06 4.978564e-39
2.2230453 0.49409622 -8.8214874e-06 4.978564e-39
2.2230453 0.47084028 -8.8214874e-06 4.978564e-39
2.2230453 0.46618909 -8.8214874e-06 4.978564e-39
2.2230453 0.4615379 -8.8214874e-06 4.978564e-39
2.2230453 0.45688671 -8.8214874e-06 4.978564e-39
2.2230453 0.43828189 -8.8214874e-06 4.978564e-39
2.2230418 0.43363005 -6.5565109e-06 4.978564e-39
2.2230418 0.42897886 -6.5565109e-06 4.978564e-39
2.2230418 0.42432767 -6.5565109e-06 4.978564e-39
2.2230418 0.40572292 -6.5565109e-06 4.978564e-39
2.2230418 0.40107173 -6.5565109e-06 4.978564e-39
2.2230418 0.39642054 -6.5565109e-06 4.978564e-39
2.2230418 0.39176935 -6.5565109e-06 4.978564e-39
2.2230453 0.38711876 -8.8214874e-06 4.978564e-39
2.2230453 0.38246757 -8.8214874e-06 4.978564e-39
2.2230453 0.37781638 -8.8214874e-06 4.978564e-39
2.2230453 0.35921162 -8.8214874e-06 4.978564e-39
2.2230453 0.35456038 -8.8214874e-06 4.978564e-39
2.2230453 0.34990919 -8.8214874e-06 4.978564e-39
2.2230453 0.345258 -8.8214874e-06 4.978564e-39
2.2230453 0.34060681 -8.8214874e-06 4.978564e-39
2.2230453 0.21037333 -8.8214874e-06 4.978564e-39
2.2230453 0.20572214 -8.8214874e-06 4.978564e-39
2.2230453 0.20107093 -8.8214874e-06 4.978564e-39
2.2230453 0.19641975 -8.8214874e-06 4.978564e-39
2.2230453 0.19176856 -8.8214874e-06 4.978564e-39
2.2230453 0.18711735 -8.8214874e-06 4.978564e-39
2.2230453 0.18246616 -8.8214874e-06 4.978564e-39
2.2230453 0.17781496 -8.8214874e-06 4.978564e-39
2.2230437 0.17316365 -7.6293945e-06 4.978564e-39
2.2230437 0.16851245 -7.6293945e-06 4.978564e-39
2.2230437 0.14060532 -7.6293945e-06 4.978564e-39
2.2230437 0.13595413 -7.6293945e-06 4.978564e-39
2.2230437 0.13130294 -7.6293945e-06 4.978564e-39
2.2230437 0.12665173 -7.6293945e-06 4.978564e-39
2.2230437 0.12200055 -7.6293945e-06 4.978564e-39
2.2230399 0.038279086 -5.2452087e-06 4.978564e-39
2.2230399 0.033627905 -5.2452087e-06 4.978564e-39
2.2230399 0.028976724 -5.2452087e-06 4.978564e-39
2.2230399 0.024325538 -5.2452087e-06 4.978564e-39
2.2230399 0.019674357 -5.2452087e-06 4.978564e-39
2.2230437 -0.04544232 -7.6293945e-06 4.978564e-39
2.2230437 -0.050093509 -7.6293945e-06 4.978564e-39
2.2230437 -0.054744706 -7.6293945e-06 4.978564e-39
2.2230437 -0.059395894 -7.6293945e-06 4.978564e-39
2.2230437 -0.073349468 -7.6293945e-06 4.978564e-39
2.2230437 -0.078000657 -7.6293945e-06 4.978564e-39
2.2230437 -0.082651846 -7.6293945e-06 4.978564e-39
2.2230437 -0.087303042 -7.6293945e-06 4.978564e-39
2.2230418 -0.091954134 -6.5565109e-06 4.978564e-39
2.2230418 -0.11521007 -6.5565109e-06 4.978564e-39
2.2230418 -0.11986126 -6.5565109e-06 4.978564e-39
2.2230418 -0.12451245 -6.5565109e-06 4.978564e-39
2.2230418 -0.12916364 -6.5565109e-06 4.978564e-39
2.2230418 -0.13381483 -6.5565109e-06 4.978564e-39
2.2230418 -0.13846602 -6.5565109e-06 4.978564e-39
2.2230437 -0.14311734 -7.6293945e-06 4.978564e-39
2.2230437 -0.14776853 -7.6293945e-06 4.978564e-39
2.2230437 -0.15241972 -7.6293945e-06 4.978564e-39
2.2230437 -0.1570709 -7.6293945e-06 4.978564e-39
2.2230437 -0.16172209 -7.6293945e-06 4.978564e-39
2.2230437 -0.1663733 -7.6293945e-06 4.978564e-39
2.2230437 -0.17102449 -7.6293945e-06 4.978564e-39
2.2230437 -0.17567568 -7.6293945e-06 4.978564e-39
2.2230418 -0.23614092 -6.5565109e-06 4.978564e-39
2.2230418 -0.24079211 -6.5565109e-06 4.978564e-39
2.2230418 -0.24544327 -6.5565109e-06 4.978564e-39
2.2230418 -0.25009447 -6.5565109e-06 4.978564e-39
2.2230418 -0.25474566 -6.5565109e-06 4.978564e-39
2.2230418 -0.25939685 -6.5565109e-06 4.978564e-39
2.2230418 -0.26404804 -6.5565109e-06 4.978564e-39
2.2230418 -0.26869923 -6.5565109e-06 4.978564e-39
2.2230418 -0.27335042 -6.5565109e-06 4.978564e-39
2.2230437 -0.30590898 -7.6293945e-06 4.978564e-39
2.2230437 -0.31056017 -7.6293945e-06 4.978564e-39
2.2230437 -0.32451373 -7.6293945e-06 4.978564e-39
2.2230437 -0.32916492 -7.6293945e-06 4.978564e-39
2.2230437 -0.33381611 -7.6293945e-06 4.978564e-39
2.2230437 -0.3384673 -7.6293945e-06 4.978564e-39
2.2230437 -0.34311849 -7.6293945e-06 4.978564e-39
2.2230437 -0.34776974 -7.6293945e-06 4.978564e-39
2.2230418 -0.35242057 -6.5565109e-06 4.978564e-39
2.2230418 -0.39428127 -6.5565109e-06 4.978564e-39
2.2230453 -0.43149155 -8.8214874e-06 4.978564e-39
2.2230453 -0.43614274 -8.8214874e-06 4.978564e-39
2.2230453 -0.44079393 -8.8214874e-06 4.978564e-39
2.2230453 -0.44544512 -8.8214874e-06 4.978564e-39
2.2230453 -0.45009631 -8.8214874e-06 4.978564e-39
2.2230453 -0.4547475 -8.8214874e-06 4.978564e-39
2.2230453 -0.45939869 -8.8214874e-06 4.978564e-39
2.2230453 -0.46404988 -8.8214874e-06 4.978564e-39
2.2230453 -0.46870106 -8.8214874e-06 4.978564e-39
2.2230453 -0.47335225 -8.8214874e-06 4.978564e-39
2.2230415 -0.59428227 -6.3180923e-06 4.978564e-39
2.2230415 -0.59893346 -6.3180923e-06 4.978564e-39
2.2230415 -0.60358465 -6.3180923e-06 4.978564e-39
2.2230415 -0.60823584 -6.3180923e-06 4.978564e-39
2.2230396 -0.61288649 -5.2452087e-06 4.978564e-39
2.2230396 -0.75242198 -5.2452087e-06 4.978564e-39
2.2230396 -0.75707316 -5.2452087e-06 4.978564e-39
2.2230396 -0.76172435 -5.2452087e-06 4.978564e-39
2.2230434 -0.81288874 -7.5101852e-06 4.978564e-39
2.2230434 -0.81753993 -7.5101852e-06 4.978564e-39
2.2230434 -0.85009825 -7.5101852e-06 4.978564e-39
2.2230434 -0.85474944 -7.5101852e-06 4.978564e-39
2.2230434 -0.85940063 -7.5101852e-06 4.978564e-39
2.2230396 -0.89195746 -5.2452087e-06 4.978564e-39
2.2230396 -0.89660865 -5.2452087e-06 4.978564e-39
2.2230396 -0.90125978 -5.2452087e-06 4.978564e-39
2.2230396 -0.90591097 -5.2452087e-06 4.978564e-39
2.2230396 -0.91056216 -5.2452087e-06 4.978564e-39
2.2230396 -0.91521335 -5.2452087e-06 4.978564e-39
2.2230396 -0.92451572 -5.2452087e-06 4.978564e-39
2.2230396 -0.92916691 -5.2452087e-06 4.978564e-39
2.2230396 -0.9338181 -5.2452087e-06 4.978564e-39
2.2230396 -0.93846929 -5.2452087e-06 4.978564e-39
2.2230434 -0.94312209 -7.5101852e-06 4.978564e-39
2.2230434 -0.94777328 -7.5101852e-06 4.978564e-39
2.2230434 -0.95242447 -7.5101852e-06 4.978564e-39
2.2230434 -0.95707566 -7.5101852e-06 4.978564e-39
2.2230434 -0.99428517 -7.5101852e-06 4.978564e-39
2.2230434 -0.99893636 -7.5101852e-06 4.978564e-39
2.2230415 -1.0035866 -6.3180923e-06 4.978564e-39
2.2230415 -1.0082378 -6.3180923e-06 4.978564e-39
2.2230415 -1.012889 -6.3180923e-06 4.978564e-39
2.2230415 -1.0687033 -6.3180923e-06 4.978564e-39
2.2230415 -1.0733545 -6.3180923e-06 4.978564e-39
2.2230434 -1.0780066 -7.5101852e-06 4.978564e-39
2.2230434 -1.0826578 -7.5101852e-06 4.978564e-39
2.2230434 -1.087309 -7.5101852e-06 4.978564e-39
2.2230415 -1.1524247 -6.3180923e-06 4.978564e-39
2.2230415 -1.1570759 -6.3180923e-06 4.978564e-39
2.2230415 -1.1710294 -6.3180923e-06 4.978564e-39
2.2230415 -1.1756806 -6.3180923e-06 4.978564e-39
2.2230415 -1.1803318 -6.3180923e-06 4.978564e-39
2.2230415 -1.184983 -6.3180923e-06 4.978564e-39
2.2230415 -1.1896342 -6.3180923e-06 4.978564e-39
2.2230415 -1.1942854 -6.3180923e-06 4.978564e-39
2.2230415 -1.1989366 -6.3180923e-06 4.978564e-39
2.2230415 -1.2035877 -6.3180923e-06 4.978564e-39
2.2230434 -1.2268447 -7.5101852e-06 4.978564e-39
2.2230434 -1.2314959 -7.5101852e-06 4.978564e-39
2.2230434 -1.236147 -7.5101852e-06 4.978564e-39
2.2230434 -1.2407982 -7.5101852e-06 4.978564e-39
2.2230434 -1.2454494 -7.5101852e-06 4.978564e-39
2.2230434 -1.2501006 -7.5101852e-06 4.978564e-39
2.2230415 -1.2873091 -6.3180923e-06 4.978564e-39
2.2230415 -1.2919602 -6.3180923e-06 4.978564e-39
2.2230415 -1.2966114 -6.3180923e-06 4.978564e-39
2.2230415 -1.3012626 -6.3180923e-06 4.978564e-39
2.2230415 -1.3059138 -6.3180923e-06 4.978564e-39
2.2230415 -1.3431233 -6.3180923e-06 4.978564e-39
2.2230396 -1.417541 -5.2452087e-06 4.978564e-39
2.2230396 -1.4221922 -5.2452087e-06 4.978564e-39
2.2230396 -1.4268434 -5.2452087e-06 4.978564e-39
2.2230396 -1.4314946 -5.2452087e-06 4.978564e-39
2.2230396 -1.4361458 -5.2452087e-06 4.978564e-39
2.2230396 -1.440797 -5.2452087e-06 4.978564e-39
2.2230396 -1.4454482 -5.2452087e-06 4.978564e-39
2.2230396 -1.4500993 -5.2452087e-06 4.978564e-39
2.2230415 -1.5152172 -6.3180923e-06 4.978564e-39
2.2230396 -1.5570766 -5.2452087e-06 4.978564e-39
2.2230396 -1.5617278 -5.2452087e-06 4.978564e-39
2.2230396 -1.566379 -5.2452087e-06 4.978564e-39
2.2230396 -1.5710301 -5.2452087e-06 4.978564e-39
2.2230396 -1.7012632 -5.2452087e-06 4.978564e-39
2.2230396 -1.7059144 -5.2452087e-06 4.978564e-39
2.2230396 -1.7105656 -5.2452087e-06 4.978564e-39
2.2230415 -1.7896372 -6.3180923e-06 4.978564e-39
2.2230415 -1.7942884 -6.3180923e-06 4.978564e-39
2.2230415 -1.7989396 -6.3180923e-06 4.978564e-39
2.2230415 -1.8035908 -6.3180923e-06 4.978564e-39
2.2230415 -1.808242 -6.3180923e-06 4.978564e-39
2.2230415 -1.8221955 -6.3180923e-06 4.978564e-39
2.2230415 -1.8268467 -6.3180923e-06 4.978564e-39
2.2230415 -1.8314979 -6.3180923e-06 4.978564e-39
2.2230415 -1.8361491 -6.3180923e-06 4.978564e-39
2.2230415 -1.8408003 -6.3180923e-06 4.978564e-39
2.2230413 -1.9477775 -6.3180923e-06 4.978564e-39
2.2230413 -1.9524287 -6.3180923e-06 4.978564e-39
2.2230413 -1.9570799 -6.3180923e-06 4.978564e-39
2.2230375 -2.1291699 -3.9339066e-06 4.978564e-39
2.2230375 -2.133821 -3.9339066e-06 4.978564e-39
2.2230413 -2.166383 -6.3180923e-06 4.978564e-39
2.2230413 -2.1710341 -6.3180923e-06 4.978564e-39
2.2230413 -2.1756854 -6.3180923e-06 4.978564e-39
2.2230394 -2.2454512 -5.1259995e-06 4.978564e-39
2.2230394 -2.2501025 -5.1259995e-06 4.978564e-39
2.2230394 -2.2547536 -5.1259995e-06 4.978564e-39
2.2230394 -2.2594049 -5.1259995e-06 4.978564e-39
2.2230394 -2.264056 -5.1259995e-06 4.978564e-39
2.2230394 -2.2687073 -5.1259995e-06 4.978564e-39
2.2230413 -2.2733603 -6.3180923e-06 4.978564e-39
2.2230413 -2.2780116 -6.3180923e-06 4.978564e-39
2.2230413 -2.291965 -6.3180923e-06 4.978564e-39
2.2230413 -2.2966163 -6.3180923e-06 4.978564e-39
2.2230413 -2.3012674 -6.3180923e-06 4.978564e-39
2.2230413 -2.3059187 -6.3180923e-06 4.978564e-39
2.2230394 -2.3105679 -5.1259995e-06 4.978564e-39
2.2230394 -2.3152189 -5.1259995e-06 4.978564e-39
2.2230394 -2.3198702 -5.1259995e-06 4.978564e-39
2.2230394 -2.3245213 -5.1259995e-06 4.978564e-39
2.2230394 -2.3291726 -5.1259995e-06 4.978564e-39
2.2230394 -2.3338237 -5.1259995e-06 4.978564e-39
2.2144511 2.2792397 -8.7022781e-06 4.978564e-39
2.2144511 2.2746 -8.7022781e-06 4.978564e-39
2.2144511 2.2699602 -8.7022781e-06 4.978564e-39
2.2144511 2.2653205 -8.7022781e-06 4.978564e-39
2.2144511 2.2606807 -8.7022781e-06 4.978564e-39
2.2144511 2.256041 -8.7022781e-06 4.978564e-39
2.2144511 2.2374821 -8.7022781e-06 4.978564e-39
2.2144511 2.2328422 -8.7022781e-06 4.978564e-39
2.2144511 2.2282026 -8.7022781e-06 4.978564e-39
2.2144511 2.2235627 -8.7022781e-06 4.978564e-39
2.2144511 2.2189231 -8.7022781e-06 4.978564e-39
2.2144547 2.2142868 -1.1086464e-05 4.978564e-39
2.2144527 2.1261296 -1.001358e-05 4.978564e-39
2.2144527 2.12149 -1.001358e-05 4.978564e-39
2.2144527 2.1168501 -1.001358e-05 4.978564e-39
2.2144527 2.1122105 -1.001358e-05 4.978564e-39
2.2144527 2.1075706 -1.001358e-05 4.978564e-39
2.2144527 2.102931 -1.001358e-05 4.978564e-39
2.2144511 2.0565317 -8.7022781e-06 4.978564e-39
2.2144511 2.0518918 -8.7022781e-06 4.978564e-39
2.2144511 2.0472522 -8.7022781e-06 4.978564e-39
2.2144511 2.0426123 -8.7022781e-06 4.978564e-39
2.2144511 2.0379727 -8.7022781e-06 4.978564e-39
2.2144511 2.0008545 -8.7022781e-06 4.978564e-39
2.2144511 1.9962147 -8.7022781e-06 4.978564e-39
2.2144511 1.991575 -8.7022781e-06 4.978564e-39
2.2144511 1.9869353 -8.7022781e-06 4.978564e-39
2.2144511 1.9822955 -8.7022781e-06 4.978564e-39
2.2144511 1.9776558 -8.7022781e-06 4.978564e-39
2.2144527 1.9544586 -1.001358e-05 4.978564e-39
2.2144527 1.9498188 -1.001358e-05 4.978564e-39
2.2144527 1.9451791 -1.001358e-05 4.978564e-39
2.2144527 1.9405394 -1.001358e-05 4.978564e-39
2.2144527 1.9358995 -1.001358e-05 4.978564e-39
2.2144511 1.9219787 -8.7022781e-06 4.978564e-39
2.2144511 1.917339 -8.7022781e-06 4.978564e-39
2.2144508 1.9126992 -8.7022781e-06 4.978564e-39
2.2144508 1.8848606 -8.7022781e-06 4.978564e-39
2.2144508 1.8802209 -8.7022781e-06 4.978564e-39
2.2144508 1.8755811 -8.7022781e-06 4.978564e-39
2.2144508 1.8709414 -8.7022781e-06 4.978564e-39
2.2144508 1.8663017 -8.7022781e-06 4.978564e-39
2.2144527 1.8059864 -1.001358e-05 4.978564e-39
2.2144508 1.8013451 -8.7022781e-06 4.978564e-39
2.2144508 1.7967054 -8.7022781e-06 4.978564e-39
2.2144508 1.7920656 -8.7022781e-06 4.978564e-39
2.2144508 1.7874259 -8.7022781e-06 4.978564e-39
2.2144508 1.7224693 -8.7022781e-06 4.978564e-39
2.2144508 1.7178296 -8.7022781e-06 4.978564e-39
2.2144508 1.7131898 -8.7022781e-06 4.978564e-39
2.2144508 1.7085501 -8.7022781e-06 4.978564e-39
2.2144508 1.671432 -8.7022781e-06 4.978564e-39
2.2144508 1.6667923 -8.7022781e-06 4.978564e-39
2.2144508 1.6621525 -8.7022781e-06 4.978564e-39
2.2144508 1.6575128 -8.7022781e-06 4.978564e-39
2.2144508 1.6343141 -8.7022781e-06 4.978564e-39
2.2144508 1.6296743 -8.7022781e-06 4.978564e-39
2.2144508 1.6250346 -8.7022781e-06 4.978564e-39
2.2144508 1.6203947 -8.7022781e-06 4.978564e-39
2.2144508 1.615755 -8.7022781e-06 4.978564e-39
2.2144508 1.6111152 -8.7022781e-06 4.978564e-39
2.2144508 1.6064755 -8.7022781e-06 4.978564e-39
2.2144508 1.6018357 -8.7022781e-06 4.978564e-39
2.2144508 1.597196 -8.7022781e-06 4.978564e-39
2.2144508 1.578637 -8.7022781e-06 4.978564e-39
2.2144508 1.5739973 -8.7022781e-06 4.978564e-39
2.2144508 1.5693575 -8.7022781e-06 4.978564e-39
2.2144508 1.5368792 -8.7022781e-06 4.978564e-39
2.2144508 1.5322394 -8.7022781e-06 4.978564e-39
2.2144508 1.5275997 -8.7022781e-06 4.978564e-39
2.2144508 1.5229599 -8.7022781e-06 4.978564e-39
2.2144508 1.5183202 -8.7022781e-06 4.978564e-39
2.2144508 1.5136805 -8.7022781e-06 4.978564e-39
2.2144508 1.5090407 -8.7022781e-06 4.978564e-39
2.2144508 1.4162457 -8.7022781e-06 4.978564e-39
2.2144508 1.4116058 -8.7022781e-06 4.978564e-39
2.2144489 1.4069649 -7.5101852e-06 4.978564e-39
2.2144489 1.3698468 -7.5101852e-06 4.978564e-39
2.2144489 1.3652071 -7.5101852e-06 4.978564e-39
2.2144489 1.3605673 -7.5101852e-06 4.978564e-39
2.2144489 1.3559276 -7.5101852e-06 4.978564e-39
2.2144489 1.3512878 -7.5101852e-06 4.978564e-39
2.2144489 1.3466481 -7.5101852e-06 4.978564e-39
2.2144489 1.3420084 -7.5101852e-06 4.978564e-39
2.2144489 1.3373686 -7.5101852e-06 4.978564e-39
2.2144489 1.3327289 -7.5101852e-06 4.978564e-39
2.2144489 1.3280891 -7.5101852e-06 4.978564e-39
2.2144489 1.2631327 -7.5101852e-06 4.978564e-39
2.2144489 1.2584929 -7.5101852e-06 4.978564e-39
2.2144489 1.2538532 -7.5101852e-06 4.978564e-39
2.2144489 1.2492133 -7.5101852e-06 4.978564e-39
2.2144489 1.2445736 -7.5101852e-06 4.978564e-39
2.2144489 1.2399338 -7.5101852e-06 4.978564e-39
2.2144527 1.1517807 -1.001358e-05 4.978564e-39
2.2144508 1.1471399 -8.7022781e-06 4.978564e-39
2.2144508 1.1425002 -8.7022781e-06 4.978564e-39
2.2144508 1.1378604 -8.7022781e-06 4.978564e-39
2.2144508 1.1332207 -8.7022781e-06 4.978564e-39
2.2144508 1.0868231 -8.7022781e-06 4.978564e-39
2.2144508 1.0821834 -8.7022781e-06 4.978564e-39
