# .PCD v0.7 - Point Cloud Data file format
VERSION 0.7
FIELDS x y z rgb
SIZE 4 4 4 4
TYPE F F F F
COUNT 1 1 1 1
WIDTH 960
HEIGHT 1
VIEWPOINT 0 0 0 1 0 0 0
POINTS 960
DATA ascii
1.6437647 -0.73575932 -6.9141388e-06 4.978564e-39
1.6558056 -0.73499411 -7.3432921e-06 4.978564e-39
1.6655039 -0.73437601 -4.8875809e-06 4.978564e-39
1.6740513 -0.73579299 -5.1736833e-06 4.978564e-39
1.6838738 -0.73517507 -5.0067902e-06 4.978564e-39
1.6937701 -0.73455334 -6.3657762e-06 4.978564e-39
1.7049786 -0.73582947 -7.1525574e-06 4.978564e-39
1.7150091 -0.73520523 -7.1525574e-06 4.978564e-39
1.7251122 -0.73457563 -5.9127806e-06 4.978564e-39
1.7340037 -0.73402214 -5.7220459e-06 4.978564e-39
1.7442369 -0.73539174 -5.1975248e-06 4.978564e-39
1.7571243 -0.73459852 -5.7220459e-06 4.978564e-39
1.7662078 -0.73403943 -6.0796738e-06 4.978564e-39
1.7766632 -0.73542434 -6.3896177e-06 4.978564e-39
1.7858646 -0.73486412 -6.7949295e-06 4.978564e-39
1.7951263 -0.73429906 -5.2928926e-06 4.978564e-39
1.8057742 -0.73569816 -5.0067902e-06 4.978564e-39
1.8151623 -0.73513424 -7.5340272e-06 4.978564e-39
1.8259492 -0.73448372 -6.4373016e-06 4.978564e-39
1.8361412 -0.73490596 -8.225441e-06 4.978564e-39
1.8463892 -0.73532754 -7.0730844e-06 4.978564e-39
1.8532608 -0.7349174 -5.8412552e-06 4.978564e-39
1.8629395 -0.7343415 -6.8426134e-06 4.978564e-39
1.8740648 -0.73577189 -6.7949295e-06 4.978564e-39
1.883872 -0.73519444 -7.367134e-06 4.978564e-39
1.8951448 -0.73452932 -5.7220459e-06 4.978564e-39
1.905798 -0.73496103 -7.1525574e-06 4.978564e-39
1.916514 -0.73539346 -7.8678131e-06 4.978564e-39
1.9236979 -0.73497391 -6.3180923e-06 4.978564e-39
1.9338167 -0.7343843 -5.8650971e-06 4.978564e-39
1.9454552 -0.73584861 -7.9870224e-06 4.978564e-39
1.9527708 -0.73542649 -6.6359839e-06 4.978564e-39
1.9645529 -0.73474824 -6.9379807e-06 4.978564e-39
1.9732895 -0.73459309 -0.0013345982 4.978564e-39
1.9868708 -0.73563224 -7.8678131e-06 4.978564e-39
1.9973844 -0.7350328 -6.0796738e-06 4.978564e-39
2.0049415 -0.73460311 -6.7949295e-06 4.978564e-39
2.0125306 -0.73417026 -5.4836273e-06 4.978564e-39
2.024755 -0.73566854 -6.1035157e-06 4.978564e-39
2.0355208 -0.73506439 -8.4638596e-06 4.978564e-39
2.0432525 -0.73462874 -7.0333481e-06 4.978564e-39
2.054925 -0.73508 -6.6161156e-06 4.978564e-39
2.0666733 -0.73553342 -7.9870224e-06 4.978564e-39
2.074553 -0.73509526 -7.7486038e-06 4.978564e-39
2.0824692 -0.73465466 -6.9141388e-06 4.978564e-39
2.0944197 -0.73511118 -5.9604645e-06 4.978564e-39
2.1064484 -0.73332185 -6.7949295e-06 4.978564e-39
2.1145203 -0.73512757 -8.4638596e-06 4.978564e-39
2.1226256 -0.73468119 -6.4373016e-06 4.978564e-39
2.1348655 -0.73514378 -6.377697e-06 4.978564e-39
2.1471851 -0.73333275 -7.0333481e-06 4.978564e-39
2.155448 -0.73515844 -5.2452087e-06 4.978564e-39
2.1637557 -0.73470861 -6.5565109e-06 4.978564e-39
2.1721027 -0.73425621 -7.2717667e-06 4.978564e-39
2.1847026 -0.73472106 -6.9141388e-06 4.978564e-39
2.2490804 -0.73945093 -5.9604645e-06 4.978564e-39
2.2578497 -0.7343021 -7.6293945e-06 4.978564e-39
2.2666576 -0.73618972 -6.3180923e-06 4.978564e-39
2.2755136 -0.73100668 -7.390976e-06 4.978564e-39
2.3250203 -0.73433864 -6.8545341e-06 4.978564e-39
2.3572414 -0.73387152 -6.6757202e-06 4.978564e-39
2.3662269 -0.73297375 -0.00023385782 4.978564e-39
0.50487262 -0.72514945 -4.6982486e-06 4.978564e-39
0.51496071 -0.72505236 -4.8535212e-06 4.978564e-39
0.5249272 -0.725012 -6.2137842e-06 4.978564e-39
0.53500932 -0.72496957 -4.7513417e-06 4.978564e-39
0.54543859 -0.72486866 -3.2537123e-06 4.978564e-39
0.55382836 -0.72489065 -2.8701929e-06 4.978564e-39
1.5486449 -0.7249155 -5.9604645e-06 4.978564e-39
1.557088 -0.72527003 -5.4836273e-06 4.978564e-39
1.5655763 -0.72562516 -5.1259995e-06 4.978564e-39
1.5735505 -0.7250756 -4.8637389e-06 4.978564e-39
1.5855937 -0.72519821 -6.0796738e-06 4.978564e-39
1.594256 -0.72555757 -7.2717667e-06 4.978564e-39
1.6023918 -0.72500193 -6.4134597e-06 4.978564e-39
1.6146792 -0.7251246 -6.0796738e-06 4.978564e-39
1.6270729 -0.72524679 -6.3419343e-06 4.978564e-39
1.6353908 -0.72468436 -5.6028366e-06 4.978564e-39
1.6443645 -0.72505015 -6.9737434e-06 4.978564e-39
1.6570148 -0.72517312 -7.3194506e-06 4.978564e-39
1.6655037 -0.72460377 -4.8875809e-06 4.978564e-39
1.6746634 -0.72497231 -4.9471855e-06 4.978564e-39
1.6838738 -0.72534156 -5.0067902e-06 4.978564e-39
1.6925294 -0.72476882 -5.9366225e-06 4.978564e-39
1.7056037 -0.72489524 -7.1525574e-06 4.978564e-39
1.7150091 -0.72526819 -7.1525574e-06 4.978564e-39
1.7238452 -0.72468776 -5.5313112e-06 4.978564e-39
1.7340037 -0.72402185 -5.7220459e-06 4.978564e-39
1.7429537 -0.72544038 -4.6491623e-06 4.978564e-39
1.7558304 -0.72460508 -5.5551527e-06 4.978564e-39
1.7662086 -0.72595382 -6.7353249e-06 4.978564e-39
1.7753532 -0.72536641 -6.8187715e-06 4.978564e-39
1.7858645 -0.72469121 -6.7949295e-06 4.978564e-39
1.7957909 -0.72507489 -6.1392784e-06 4.978564e-39
1.805776 -0.72545981 -6.4373016e-06 4.978564e-39
1.816507 -0.72477818 -7.4625013e-06 4.978564e-39
1.8268038 -0.72566432 -0.0020550995 4.978564e-39
1.8368223 -0.72555572 -8.0823902e-06 4.978564e-39
1.8463897 -0.72495341 -7.5101852e-06 4.978564e-39
1.8532606 -0.72452021 -5.8412552e-06 4.978564e-39
1.8636326 -0.72491258 -6.6161156e-06 4.978564e-39
1.8740648 -0.7253055 -6.7949295e-06 4.978564e-39
1.8852775 -0.72460794 -7.367134e-06 4.978564e-39
1.8951448 -0.72399276 -5.7220459e-06 4.978564e-39
1.9065101 -0.72540116 -7.1763993e-06 4.978564e-39
1.9165142 -0.72478569 -7.8678131e-06 4.978564e-39
1.9236979 -0.72434217 -6.3180923e-06 4.978564e-39
1.9345419 -0.72474223 -5.8412552e-06 4.978564e-39
1.9454552 -0.72514457 -7.9870224e-06 4.978564e-39
1.9527684 -0.72469711 -4.8875809e-06 4.978564e-39
1.9638144 -0.72510087 -6.9141388e-06 4.978564e-39
1.9749248 -0.72550929 -6.9141388e-06 4.978564e-39
1.9853731 -0.72488034 -7.6293945e-06 4.978564e-39
1.9973844 -0.72633123 -6.0796738e-06 4.978564e-39
2.0049415 -0.723701 -6.7949295e-06 4.978564e-39
2.0125306 -0.7254284 -5.4836273e-06 4.978564e-39
2.0232227 -0.72479188 -6.2942504e-06 4.978564e-39
2.0355208 -0.72626132 -8.4638596e-06 4.978564e-39
2.0432525 -0.72359914 -7.0333481e-06 4.978564e-39
2.0557053 -0.72507113 -6.5565109e-06 4.978564e-39
2.0666733 -0.72442585 -7.9870224e-06 4.978564e-39
2.074553 -0.72618824 -7.7486038e-06 4.978564e-39
2.0824692 -0.72349459 -6.9141388e-06 4.978564e-39
2.0952191 -0.72498345 -6.0796738e-06 4.978564e-39
2.1064494 -0.72433031 -7.4505806e-06 4.978564e-39
2.1145203 -0.72611415 -8.4638596e-06 4.978564e-39
2.1226263 -0.72338778 -7.0929527e-06 4.978564e-39
2.1356847 -0.7248944 -6.7472456e-06 4.978564e-39
2.1471851 -0.72423232 -7.0333481e-06 4.978564e-39
2.1554499 -0.72603673 -6.3180923e-06 4.978564e-39
2.1637557 -0.72327805 -6.5565109e-06 4.978564e-39
2.1721046 -0.72509015 -8.4638596e-06 4.978564e-39
2.1804891 -0.7269094 -7.1525574e-06 4.978564e-39
2.2578497 -0.72490704 -7.6293945e-06 4.978564e-39
2.2666576 -0.72677124 -6.3180923e-06 4.978564e-39
2.2755136 -0.72628564 -7.390976e-06 4.978564e-39
2.323499 -0.72524762 -6.6757202e-06 4.978564e-39
2.3572414 -0.72662675 -6.6757202e-06 4.978564e-39
2.3665559 -0.72370666 -6.9737434e-06 4.978564e-39
0.50447989 -0.715114 -4.3336081e-06 4.978564e-39
0.51443046 -0.71496654 -0.00027968269 4.978564e-39
0.52485985 -0.71514112 -5.434541e-06 4.978564e-39
0.53522801 -0.7148717 -4.5583361e-06 4.978564e-39
0.54564393 -0.71489054 -3.4123659e-06 4.978564e-39
0.55382866 -0.71477032 -3.1689804e-06 4.978564e-39
1.5486449 -0.71553212 -5.9604645e-06 4.978564e-39
1.5576525 -0.71487534 -5.5074693e-06 4.978564e-39
1.5655762 -0.71618539 -5.1259995e-06 4.978564e-39
1.5741221 -0.71462244 -5.1856041e-06 4.978564e-39
1.5861695 -0.71469861 -6.0558318e-06 4.978564e-39
1.594256 -0.71602243 -7.2717667e-06 4.978564e-39
1.6035569 -0.71535593 -5.8650971e-06 4.978564e-39
1.6152664 -0.71451789 -5.674362e-06 4.978564e-39
1.6258885 -0.7156865 -6.6518783e-06 4.978564e-39
1.6353908 -0.71501231 -5.6028366e-06 4.978564e-39
1.6449645 -0.71433443 -7.0333481e-06 4.978564e-39
1.6558056 -0.71551406 -7.3432921e-06 4.978564e-39
1.6655039 -0.71483141 -4.8875809e-06 4.978564e-39
1.6752754 -0.71414512 -4.7206877e-06 4.978564e-39
1.6838738 -0.71550816 -5.0067902e-06 4.978564e-39
1.6937687 -0.71482003 -5.2690507e-06 4.978564e-39
1.7056042 -0.71498966 -7.4803829e-06 4.978564e-39
1.7150103 -0.71533161 -8.1857042e-06 4.978564e-39
1.7251129 -0.71463454 -6.4373016e-06 4.978564e-39
1.7340037 -0.71402156 -5.7220459e-06 4.978564e-39
1.7442377 -0.71532333 -5.7458878e-06 4.978564e-39
1.7571243 -0.71444398 -5.7220459e-06 4.978564e-39
1.7662095 -0.71584672 -7.390976e-06 4.978564e-39
1.7766644 -0.71514022 -7.2479247e-06 4.978564e-39
1.7858646 -0.71451831 -6.7949295e-06 4.978564e-39
1.7964547 -0.71584404 -6.1273577e-06 4.978564e-39
1.805776 -0.71522063 -6.4373016e-06 4.978564e-39
1.8151615 -0.71459305 -7.0095061e-06 4.978564e-39
1.8259492 -0.71593237 -6.4373016e-06 4.978564e-39
1.8354601 -0.7153036 -8.3684918e-06 4.978564e-39
1.8463897 -0.71457911 -7.5101852e-06 4.978564e-39
1.8532608 -0.71412301 -5.8412552e-06 4.978564e-39
1.8643258 -0.71547735 -6.3896177e-06 4.978564e-39
1.8757586 -0.71601075 -0.0018092113 4.978564e-39
1.8838707 -0.71419573 -6.3180923e-06 4.978564e-39
1.8951448 -0.71556342 -5.7220459e-06 4.978564e-39
1.9050858 -0.71491915 -7.1287154e-06 4.978564e-39
1.9165142 -0.71629947 -7.8678131e-06 4.978564e-39
1.9236979 -0.71371061 -6.3180923e-06 4.978564e-39
1.9352671 -0.71509349 -5.8174132e-06 4.978564e-39
1.9454552 -0.71444046 -7.9870224e-06 4.978564e-39
1.9527684 -0.7161144 -4.8875809e-06 4.978564e-39
1.9630759 -0.71546042 -6.8902968e-06 4.978564e-39
1.9749247 -0.71470708 -6.9141388e-06 4.978564e-39
1.986122 -0.71508104 -7.7486038e-06 4.978564e-39
1.9973844 -0.71545428 -6.0796738e-06 4.978564e-39
2.0049415 -0.71497941 -6.7949295e-06 4.978564e-39
2.0125306 -0.71450108 -5.4836273e-06 4.978564e-39
2.023989 -0.71487862 -6.1988831e-06 4.978564e-39
2.0355167 -0.71525615 -5.8412552e-06 4.978564e-39
2.0432525 -0.7147755 -7.0333481e-06 4.978564e-39
2.0549254 -0.71515441 -6.9141388e-06 4.978564e-39
2.0666733 -0.71553981 -7.9870224e-06 4.978564e-39
2.0745542 -0.71505493 -8.5433321e-06 4.978564e-39
2.0824692 -0.71456653 -6.9141388e-06 4.978564e-39
2.0944204 -0.71494907 -6.5565109e-06 4.978564e-39
2.1064503 -0.71533865 -8.1062317e-06 4.978564e-39
2.1145194 -0.71484691 -7.6691313e-06 4.978564e-39
2.1226273 -0.71435308 -7.7486038e-06 4.978564e-39
2.1348665 -0.71473932 -6.9737434e-06 4.978564e-39
2.1471851 -0.71513194 -7.0333481e-06 4.978564e-39
2.1554499 -0.7146337 -6.3180923e-06 4.978564e-39
2.1637557 -0.7141335 -6.5565109e-06 4.978564e-39
2.1721046 -0.71592337 -8.4638596e-06 4.978564e-39
2.1832983 -0.71295661 -7.1922937e-06 4.978564e-39
2.2490804 -0.71367872 -5.9604645e-06 4.978564e-39
2.2578497 -0.71551198 -7.6293945e-06 4.978564e-39
2.2666576 -0.71499807 -6.3180923e-06 4.978564e-39
2.3572414 -0.71938199 -6.6757202e-06 4.978564e-39
2.366555 -0.71402192 -6.3180923e-06 4.978564e-39
0.50474119 -0.70507336 -3.9058573e-06 4.978564e-39
0.51485312 -0.70508534 -4.6037494e-06 4.978564e-39
0.52512801 -0.70498502 -5.6729596e-06 4.978564e-39
0.53522813 -0.70501435 -4.0650366e-06 4.978564e-39
0.54571247 -0.70492601 -4.1092144e-06 4.978564e-39
0.5538289 -0.70505494 -3.7352245e-06 4.978564e-39
1.5486449 -0.70427209 -5.9604645e-06 4.978564e-39
1.5565236 -0.70554799 -5.4597854e-06 4.978564e-39
1.5655762 -0.70485777 -5.1259995e-06 4.978564e-39
1.5746937 -0.70416307 -5.5074693e-06 4.978564e-39
1.5850165 -0.70527685 -4.9591063e-06 4.978564e-39
1.594256 -0.70458013 -7.2717667e-06 4.978564e-39
1.6023918 -0.70587742 -6.4134597e-06 4.978564e-39
1.6140921 -0.70500124 -6.4849855e-06 4.978564e-39
1.6264806 -0.70503879 -6.4969063e-06 4.978564e-39
1.6353908 -0.70534021 -5.6028366e-06 4.978564e-39
1.6437638 -0.70471895 -6.1035157e-06 4.978564e-39
1.6564108 -0.7047565 -7.8479452e-06 4.978564e-39
1.6655054 -0.70505989 -6.1988831e-06 4.978564e-39
1.6740519 -0.70443094 -5.6982039e-06 4.978564e-39
1.6838738 -0.70567477 -5.0067902e-06 4.978564e-39
1.6925293 -0.70504439 -5.9843064e-06 4.978564e-39
1.7056036 -0.70508355 -6.8942704e-06 4.978564e-39
1.7150109 -0.70539486 -8.7022781e-06 4.978564e-39
1.7238461 -0.70475507 -6.0558318e-06 4.978564e-39
1.7340037 -0.70402122 -5.7220459e-06 4.978564e-39
1.7429558 -0.70538104 -6.2942504e-06 4.978564e-39
1.755831 -0.70445943 -5.8412552e-06 4.978564e-39
1.7662095 -0.7057392 -7.390976e-06 4.978564e-39
1.7753534 -0.70509052 -6.8187715e-06 4.978564e-39
1.7858645 -0.70434541 -6.7949295e-06 4.978564e-39
1.7952347 -0.70586175 -0.00083470944 4.978564e-39
1.805776 -0.70498151 -6.4373016e-06 4.978564e-39
1.8158338 -0.70530379 -6.9737434e-06 4.978564e-39
1.8259472 -0.7056253 -5.1259995e-06 4.978564e-39
1.8368223 -0.70487058 -8.0823902e-06 4.978564e-39
1.8463897 -0.7042048 -7.5101852e-06 4.978564e-39
1.8532608 -0.70580518 -5.8412552e-06 4.978564e-39
1.8627294 -0.70452094 -0.00078974344 4.978564e-39
1.8741496 -0.70438069 -0.00027147177 4.978564e-39
1.8845735 -0.70469946 -6.3180923e-06 4.978564e-39
1.8951448 -0.70502681 -5.7220459e-06 4.978564e-39
1.905798 -0.70535922 -7.1525574e-06 4.978564e-39
1.916514 -0.70569164 -7.8678131e-06 4.978564e-39
1.9236979 -0.70520526 -6.3180923e-06 4.978564e-39
1.9338169 -0.70452136 -5.8650971e-06 4.978564e-39
1.9454552 -0.70587718 -7.9870224e-06 4.978564e-39
1.9527684 -0.70538598 -4.8875809e-06 4.978564e-39
1.9645522 -0.70459861 -6.4134597e-06 4.978564e-39
1.9749248 -0.70390493 -6.9141388e-06 4.978564e-39
1.9868708 -0.70527488 -7.8678131e-06 4.978564e-39
1.9973853 -0.70457774 -6.7949295e-06 4.978564e-39
2.0049415 -0.7062577 -6.7949295e-06 4.978564e-39
2.0125325 -0.70357442 -6.6757202e-06 4.978564e-39
2.0247569 -0.70495886 -7.5340272e-06 4.978564e-39
2.0355167 -0.70425224 -5.8412552e-06 4.978564e-39
2.0432534 -0.70595217 -7.7486038e-06 4.978564e-39
2.0541451 -0.7052449 -7.1525574e-06 4.978564e-39
2.0666733 -0.70665383 -7.9870224e-06 4.978564e-39
2.0745549 -0.70392132 -8.9406967e-06 4.978564e-39
2.0824692 -0.70563841 -6.9141388e-06 4.978564e-39
2.0936215 -0.70492184 -6.5565109e-06 4.978564e-39
2.1064503 -0.70634669 -8.1062317e-06 4.978564e-39
2.1145186 -0.70357996 -7.2717667e-06 4.978564e-39
2.1226263 -0.7053178 -7.0929527e-06 4.978564e-39
2.134048 -0.70459163 -6.9618227e-06 4.978564e-39
2.1471851 -0.70603156 -7.0333481e-06 4.978564e-39
2.1554499 -0.70323074 -6.3180923e-06 4.978564e-39
2.1637557 -0.70498896 -6.5565109e-06 4.978564e-39
2.1721046 -0.70675659 -8.4638596e-06 4.978564e-39
2.1847606 -0.70419157 -0.00045673185 4.978564e-39
2.1973827 -0.70518136 -5.364418e-06 4.978564e-39
2.2230434 -0.70126003 -7.5101852e-06 4.978564e-39
2.2316785 -0.70304745 -6.3180923e-06 4.978564e-39
2.2403591 -0.7001704 -6.9141388e-06 4.978564e-39
2.2578497 -0.7084657 -7.6293945e-06 4.978564e-39
0.50461054 -0.6950106 -4.6772116e-06 4.978564e-39
0.51453197 -0.69510865 -4.2347683e-06 4.978564e-39
0.52472645 -0.69483995 -5.8903415e-06 4.978564e-39
0.53544772 -0.69515234 -4.2631514e-06 4.978564e-39
0.54564422 -0.694942 -4.2617321e-06 4.978564e-39
0.55382854 -0.6953389 -3.0199687e-06 4.978564e-39
1.5486449 -0.69488871 -5.9604645e-06 4.978564e-39
1.557088 -0.6951533 -5.4836273e-06 4.978564e-39
1.5655763 -0.695418 -5.1259995e-06 4.978564e-39
1.5735505 -0.69478363 -4.8637389e-06 4.978564e-39
1.5855923 -0.69477725 -4.8677125e-06 4.978564e-39
1.5942569 -0.69504535 -7.9274178e-06 4.978564e-39
1.6029749 -0.69531423 -6.6161156e-06 4.978564e-39
1.6152672 -0.69530803 -6.1988831e-06 4.978564e-39
1.6270739 -0.69438517 -7.2717667e-06 4.978564e-39
1.6353908 -0.69566816 -5.6028366e-06 4.978564e-39
1.644963 -0.6949259 -5.9366225e-06 4.978564e-39
1.6564111 -0.69501466 -8.1062317e-06 4.978564e-39
1.6655054 -0.69528753 -6.1988831e-06 4.978564e-39
1.6752764 -0.69453585 -5.5074693e-06 4.978564e-39
1.6838738 -0.69584131 -5.0067902e-06 4.978564e-39
1.6937689 -0.69508737 -5.5789947e-06 4.978564e-39
1.705603 -0.69517761 -6.4373016e-06 4.978564e-39
1.715011 -0.69545776 -8.7022781e-06 4.978564e-39
1.7251132 -0.69469327 -6.6995622e-06 4.978564e-39
1.7340037 -0.69402099 -5.7220459e-06 4.978564e-39
1.7442377 -0.69525468 -5.7458878e-06 4.978564e-39
1.7571243 -0.69428951 -5.7220459e-06 4.978564e-39
1.7662095 -0.69563168 -7.390976e-06 4.978564e-39
1.7766641 -0.69485563 -7.2479247e-06 4.978564e-39
1.7858646 -0.6941725 -6.7949295e-06 4.978564e-39
1.7964547 -0.69542778 -6.1273577e-06 4.978564e-39
1.805776 -0.69474226 -6.4373016e-06 4.978564e-39
1.8158339 -0.69503117 -6.9737434e-06 4.978564e-39
1.8259475 -0.69531906 -5.2452087e-06 4.978564e-39
1.835458 -0.69462681 -6.7949295e-06 4.978564e-39
1.8463897 -0.69590521 -7.5101852e-06 4.978564e-39
1.8532606 -0.69540805 -5.8412552e-06 4.978564e-39
1.8643255 -0.69460917 -6.3896177e-06 4.978564e-39
1.8740648 -0.69390607 -6.7949295e-06 4.978564e-39
1.8852762 -0.69519675 -6.3180923e-06 4.978564e-39
1.8951448 -0.69449019 -5.7220459e-06 4.978564e-39
1.9065094 -0.69579238 -6.6041948e-06 4.978564e-39
1.9165142 -0.69508398 -7.8678131e-06 4.978564e-39
1.9236985 -0.69457388 -6.7154565e-06 4.978564e-39
1.9345429 -0.69487298 -6.467104e-06 4.978564e-39
1.9454552 -0.69517308 -7.9870224e-06 4.978564e-39
1.9527701 -0.69465828 -6.0796738e-06 4.978564e-39
1.9638144 -0.69495833 -6.9141388e-06 4.978564e-39
1.9749238 -0.69526291 -6.1988831e-06 4.978564e-39
1.9853742 -0.69453728 -8.4161757e-06 4.978564e-39
1.9973862 -0.69587654 -7.5101852e-06 4.978564e-39
2.0049415 -0.69535565 -6.7949295e-06 4.978564e-39
2.0125325 -0.69483256 -6.6757202e-06 4.978564e-39
2.0239906 -0.69513887 -7.390976e-06 4.978564e-39
2.0355167 -0.69544923 -5.8412552e-06 4.978564e-39
2.0432525 -0.69492227 -7.0333481e-06 4.978564e-39
2.0549259 -0.695234 -7.212162e-06 4.978564e-39
2.0666733 -0.69554633 -7.9870224e-06 4.978564e-39
2.0745549 -0.69501436 -8.9406967e-06 4.978564e-39
2.0824692 -0.69447833 -6.9141388e-06 4.978564e-39
2.0944204 -0.69479197 -6.5565109e-06 4.978564e-39
2.1064503 -0.69510674 -8.1062317e-06 4.978564e-39
2.1145186 -0.69456655 -7.2717667e-06 4.978564e-39
2.1226256 -0.69628251 -6.4373016e-06 4.978564e-39
2.1348665 -0.69433993 -6.9737434e-06 4.978564e-39
2.1471851 -0.69465607 -7.0333481e-06 4.978564e-39
2.1554499 -0.69410831 -6.3180923e-06 4.978564e-39
2.1637557 -0.69584447 -6.5565109e-06 4.978564e-39
2.1721046 -0.69529819 -8.4638596e-06 4.978564e-39
2.1847029 -0.69562274 -7.212162e-06 4.978564e-39
2.1973827 -0.69594735 -5.364418e-06 4.978564e-39
2.2230434 -0.69428325 -7.5101852e-06 4.978564e-39
2.2316785 -0.69605339 -6.3180923e-06 4.978564e-39
2.2403591 -0.69315904 -6.9141388e-06 4.978564e-39
2.2844107 -0.69029969 -6.3180923e-06 4.978564e-39
0.50487262 -0.68496567 -4.6982486e-06 4.978564e-39
0.51474541 -0.68512148 -3.5933085e-06 4.978564e-39
0.52499384 -0.68468189 -5.7220459e-06 4.978564e-39
0.53511846 -0.68506205 -4.2745046e-06 4.978564e-39
0.54564422 -0.68526989 -4.2617321e-06 4.978564e-39
0.55364794 -0.68521124 -3.1452912e-06 4.978564e-39
1.548646 -0.68550587 -6.9141388e-06 4.978564e-39
1.5576532 -0.68475294 -6.1273577e-06 4.978564e-39
1.5655762 -0.68597835 -5.1259995e-06 4.978564e-39
1.5746943 -0.68522322 -6.0796738e-06 4.978564e-39
1.5861689 -0.68427199 -5.4359434e-06 4.978564e-39
1.5942554 -0.68550962 -6.7551932e-06 4.978564e-39
1.6035579 -0.68474483 -6.7710876e-06 4.978564e-39
1.6140928 -0.68579924 -7.0095061e-06 4.978564e-39
1.6258891 -0.68483734 -7.2717667e-06 4.978564e-39
1.6353908 -0.68406171 -5.6028366e-06 4.978564e-39
1.6437629 -0.68531883 -5.5551527e-06 4.978564e-39
1.6564106 -0.6852724 -7.6293945e-06 4.978564e-39
1.6655054 -0.68551528 -6.1988831e-06 4.978564e-39
1.6740519 -0.68482935 -5.6982039e-06 4.978564e-39
1.6838738 -0.6840412 -5.0067902e-06 4.978564e-39
1.6925293 -0.68531984 -5.9843064e-06 4.978564e-39
1.705603 -0.6852718 -6.4373016e-06 4.978564e-39
1.7150109 -0.68552065 -8.7022781e-06 4.978564e-39
1.7238461 -0.68482208 -6.0558318e-06 4.978564e-39
1.7340037 -0.6840207 -5.7220459e-06 4.978564e-39
1.7429558 -0.68532091 -6.2942504e-06 4.978564e-39
1.755831 -0.68431354 -5.8412552e-06 4.978564e-39
1.7662095 -0.68552423 -7.390976e-06 4.978564e-39
1.7753522 -0.68481433 -6.0319899e-06 4.978564e-39
1.7858646 -0.6860342 -6.7949295e-06 4.978564e-39
1.7951272 -0.68532169 -6.1511992e-06 4.978564e-39
1.805776 -0.68450308 -6.4373016e-06 4.978564e-39
1.8158338 -0.68475842 -6.9737434e-06 4.978564e-39
1.8259474 -0.68501276 -5.2452087e-06 4.978564e-39
1.8361378 -0.6852715 -5.6624413e-06 4.978564e-39
1.8463897 -0.6855309 -7.5101852e-06 4.978564e-39
1.8532608 -0.68501079 -5.8412552e-06 4.978564e-39
1.8629401 -0.68428046 -7.367134e-06 4.978564e-39
1.8740648 -0.68553293 -6.7949295e-06 4.978564e-39
1.8838714 -0.68479842 -6.7949295e-06 4.978564e-39
1.8951483 -0.68606222 -8.225441e-06 4.978564e-39
1.9050846 -0.68532354 -6.246567e-06 4.978564e-39
1.916514 -0.6844762 -7.8678131e-06 4.978564e-39
1.9236999 -0.68394262 -7.5101852e-06 4.978564e-39
1.9352691 -0.68521792 -7.3194506e-06 4.978564e-39
1.9454552 -0.68446898 -7.9870224e-06 4.978564e-39
1.9527701 -0.68607557 -6.0796738e-06 4.978564e-39
1.9630759 -0.68532479 -6.8902968e-06 4.978564e-39
1.974923 -0.6844604 -5.4836273e-06 4.978564e-39
1.9861221 -0.68473071 -7.7784061e-06 4.978564e-39
1.9973863 -0.68499964 -7.5101852e-06 4.978564e-39
2.0049415 -0.68445361 -6.7949295e-06 4.978564e-39
2.0125325 -0.68609071 -6.6757202e-06 4.978564e-39
2.0232244 -0.68532598 -7.2479247e-06 4.978564e-39
2.0355167 -0.68444538 -5.8412552e-06 4.978564e-39
2.0432525 -0.68389267 -7.0333481e-06 4.978564e-39
2.055706 -0.68521571 -7.0333481e-06 4.978564e-39
2.0666733 -0.68443871 -7.9870224e-06 4.978564e-39
2.0745549 -0.68610734 -8.9406967e-06 4.978564e-39
2.0824692 -0.68331826 -6.9141388e-06 4.978564e-39
2.0944204 -0.68583208 -6.5565109e-06 4.978564e-39
2.1064503 -0.68386686 -8.1062317e-06 4.978564e-39
2.1145186 -0.68555313 -7.2717667e-06 4.978564e-39
2.1226256 -0.68498874 -6.4373016e-06 4.978564e-39
2.1348665 -0.68527234 -6.9737434e-06 4.978564e-39
2.1471851 -0.68328059 -7.0333481e-06 4.978564e-39
2.1554499 -0.68498594 -6.3180923e-06 4.978564e-39
2.1637557 -0.68669993 -6.5565109e-06 4.978564e-39
2.1721046 -0.68383974 -8.4638596e-06 4.978564e-39
2.1847029 -0.68872261 -7.212162e-06 4.978564e-39
2.2316785 -0.68672806 -6.3180923e-06 4.978564e-39
2.2403591 -0.68614769 -6.9141388e-06 4.978564e-39
2.2755136 -0.68615675 -7.390976e-06 4.978564e-39
2.2844117 -0.6832006 -6.9141388e-06 4.978564e-39
2.2933543 -0.68497455 -6.5565109e-06 4.978564e-39
2.3113799 -0.68378174 -8.3446503e-06 4.978564e-39
2.3204603 -0.68318057 -8.7022781e-06 4.978564e-39
0.50448 -0.67493951 -4.6141008e-06 4.978564e-39
0.51496023 -0.67513102 -3.5138357e-06 4.978564e-39
0.52493173 -0.67506826 -0.00039877681 4.978564e-39
0.53533745 -0.67495793 -3.8941703e-06 4.978564e-39
0.54557568 -0.67528731 -4.6842238e-06 4.978564e-39
0.55382919 -0.67509979 -4.529953e-06 4.978564e-39
1.5486465 -0.67424607 -7.390976e-06 4.978564e-39
1.5565243 -0.67543763 -6.0796738e-06 4.978564e-39
1.5655762 -0.67465067 -5.1259995e-06 4.978564e-39
1.5735514 -0.67585152 -5.7220459e-06 4.978564e-39
1.585017 -0.67486286 -5.1736833e-06 4.978564e-39
1.5942544 -0.67406684 -5.8412552e-06 4.978564e-39
1.6023912 -0.67527801 -5.8889391e-06 4.978564e-39
1.6146803 -0.67518854 -6.7353249e-06 4.978564e-39
1.6270739 -0.67509633 -7.2717667e-06 4.978564e-39
1.6350087 -0.67342538 -0.0005402583 4.978564e-39
1.6443628 -0.67459923 -5.6028366e-06 4.978564e-39
1.6570137 -0.67450351 -6.1988831e-06 4.978564e-39
1.6655054 -0.67574292 -6.1988831e-06 4.978564e-39
1.6752764 -0.67492622 -5.5074693e-06 4.978564e-39
1.6838738 -0.67420769 -5.0067902e-06 4.978564e-39
1.6937689 -0.6753546 -5.5789947e-06 4.978564e-39
1.706038 -0.67370611 -7.1308968e-05 4.978564e-39
1.7150074 -0.67558211 -5.8412552e-06 4.978564e-39
1.7251132 -0.67475188 -6.6995622e-06 4.978564e-39
1.7340037 -0.67402035 -5.7220459e-06 4.978564e-39
1.7442375 -0.67518598 -5.7458878e-06 4.978564e-39
1.7564776 -0.67519641 -5.7816505e-06 4.978564e-39
1.7662095 -0.67541671 -7.390976e-06 4.978564e-39
1.7766615 -0.67456996 -5.0783156e-06 4.978564e-39
1.7858645 -0.6758613 -6.7949295e-06 4.978564e-39
1.796455 -0.67501152 -6.4134597e-06 4.978564e-39
1.805776 -0.67426395 -6.4373016e-06 4.978564e-39
1.8165066 -0.67545861 -7.2002413e-06 4.978564e-39
1.8259492 -0.67470711 -6.4373016e-06 4.978564e-39
1.8361384 -0.67493147 -6.0995421e-06 4.978564e-39
1.8463888 -0.67515624 -6.8545341e-06 4.978564e-39
1.8532624 -0.67461419 -7.1525574e-06 4.978564e-39
1.8636342 -0.67484087 -7.9274178e-06 4.978564e-39
1.8740648 -0.67506647 -6.7949295e-06 4.978564e-39
1.8845744 -0.67529577 -6.9141388e-06 4.978564e-39
1.8951483 -0.67552549 -8.225441e-06 4.978564e-39
1.9065084 -0.6746431 -5.8174132e-06 4.978564e-39
1.9165124 -0.67386782 -6.6757202e-06 4.978564e-39
1.9236999 -0.67543727 -7.5101852e-06 4.978564e-39
1.9338182 -0.67465901 -6.8664549e-06 4.978564e-39
1.9454552 -0.67590576 -7.9870224e-06 4.978564e-39
1.9527701 -0.67534709 -6.0796738e-06 4.978564e-39
1.9638144 -0.67558354 -6.9141388e-06 4.978564e-39
1.974923 -0.67365825 -5.4836273e-06 4.978564e-39
1.9868695 -0.67491692 -6.8902968e-06 4.978564e-39
1.9973862 -0.67412269 -7.5101852e-06 4.978564e-39
2.0049415 -0.67573196 -6.7949295e-06 4.978564e-39
2.0125325 -0.67516345 -6.7551932e-06 4.978564e-39
2.0239906 -0.67540359 -7.390976e-06 4.978564e-39
2.0355167 -0.67344153 -5.8412552e-06 4.978564e-39
2.0432525 -0.67506903 -7.0333481e-06 4.978564e-39
2.0541444 -0.67426044 -6.6757202e-06 4.978564e-39
2.0666733 -0.67555273 -7.9870224e-06 4.978564e-39
2.0745549 -0.67497355 -8.9406967e-06 4.978564e-39
2.0824692 -0.67439014 -6.9141388e-06 4.978564e-39
2.0952201 -0.67569256 -6.5565109e-06 4.978564e-39
2.1064503 -0.6748749 -8.1062317e-06 4.978564e-39
2.1145186 -0.67653972 -7.2717667e-06 4.978564e-39
2.1226256 -0.67369497 -6.4373016e-06 4.978564e-39
2.1356845 -0.67501056 -6.508827e-06 4.978564e-39
2.1471851 -0.67418015 -7.0333481e-06 4.978564e-39
2.1554499 -0.6758635 -6.3180923e-06 4.978564e-39
2.1637557 -0.67526931 -6.5565109e-06 4.978564e-39
2.1721046 -0.67467296 -8.4638596e-06 4.978564e-39
2.2755136 -0.67907518 -7.390976e-06 4.978564e-39
2.2844126 -0.67610157 -7.5101852e-06 4.978564e-39
2.2933543 -0.67785734 -6.5565109e-06 4.978564e-39
2.311379 -0.67424387 -7.7486038e-06 4.978564e-39
2.3204603 -0.67600924 -8.7022781e-06 4.978564e-39
0.50474155 -0.66489327 -5.0067902e-06 4.978564e-39
0.5146386 -0.66515893 -3.9225533e-06 4.978564e-39
0.52486038 -0.66494459 -7.0052988e-06 4.978564e-39
0.53500921 -0.66487265 -4.1325889e-06 4.978564e-39
0.54564428 -0.66532159 -4.4032931e-06 4.978564e-39
0.55400997 -0.66498441 -4.4015737e-06 4.978564e-39
1.5486431 -0.66486132 -4.529953e-06 4.978564e-39
1.557089 -0.66503704 -6.377697e-06 4.978564e-39
1.5655763 -0.66521096 -5.1259995e-06 4.978564e-39
1.5741228 -0.66538835 -5.9008598e-06 4.978564e-39
1.5861689 -0.66525543 -5.4359434e-06 4.978564e-39
1.5942544 -0.66453171 -5.8412552e-06 4.978564e-39
1.6029736 -0.66470832 -5.4836273e-06 4.978564e-39
1.6152674 -0.66457182 -6.4611436e-06 4.978564e-39
1.6258888 -0.66555649 -7.2717667e-06 4.978564e-39
1.6353908 -0.6647175 -5.6028366e-06 4.978564e-39
1.6443629 -0.66489726 -5.6028366e-06 4.978564e-39
1.6558031 -0.6648649 -5.364418e-06 4.978564e-39
1.6655054 -0.66401607 -6.1988831e-06 4.978564e-39
1.6740519 -0.66522789 -5.6982039e-06 4.978564e-39
1.6838738 -0.66437429 -5.0067902e-06 4.978564e-39
1.6925293 -0.66559535 -5.9843064e-06 4.978564e-39
1.7049774 -0.66452247 -6.2942504e-06 4.978564e-39
1.7150074 -0.665645 -5.8412552e-06 4.978564e-39
1.7238461 -0.66488916 -6.0558318e-06 4.978564e-39
1.7340041 -0.6640203 -6.1988831e-06 4.978564e-39
1.7429564 -0.66526097 -6.8426134e-06 4.978564e-39
1.7564782 -0.6651215 -6.2187514e-06 4.978564e-39
1.7667522 -0.66436154 -0.0019145869 4.978564e-39
1.7753519 -0.66453838 -5.7220459e-06 4.978564e-39
1.7858655 -0.66568875 -7.5101852e-06 4.978564e-39
1.7951279 -0.66491443 -6.7234041e-06 4.978564e-39
1.805776 -0.66607261 -6.4373016e-06 4.978564e-39
1.8151627 -0.66529548 -7.7962877e-06 4.978564e-39
1.8259492 -0.66440082 -6.4373016e-06 4.978564e-39
1.8361387 -0.66459131 -6.3180923e-06 4.978564e-39
1.846388 -0.66478157 -6.1988831e-06 4.978564e-39
1.8532624 -0.664217 -7.1525574e-06 4.978564e-39
1.8643277 -0.66539466 -7.9631809e-06 4.978564e-39
1.8740648 -0.66460001 -6.7949295e-06 4.978564e-39
1.8852768 -0.66578639 -6.7949295e-06 4.978564e-39
1.8951483 -0.66498893 -8.225441e-06 4.978564e-39
1.905084 -0.66418386 -5.7458878e-06 4.978564e-39
1.9165106 -0.66538095 -5.4836273e-06 4.978564e-39
1.9236999 -0.66480559 -7.5101852e-06 4.978564e-39
1.9345438 -0.66500354 -7.0929527e-06 4.978564e-39
1.9454552 -0.66520166 -7.9870224e-06 4.978564e-39
1.9527701 -0.66461873 -6.0796738e-06 4.978564e-39
1.9645529 -0.66583538 -6.9379807e-06 4.978564e-39
1.974923 -0.66501653 -5.4836273e-06 4.978564e-39
1.9853709 -0.66419262 -5.9127806e-06 4.978564e-39
1.9973862 -0.66542113 -7.5101852e-06 4.978564e-39
2.0049415 -0.66482991 -6.7949295e-06 4.978564e-39
2.0125325 -0.66423613 -6.7949295e-06 4.978564e-39
2.0247569 -0.66547406 -7.5340272e-06 4.978564e-39
2.0355167 -0.66463852 -5.8412552e-06 4.978564e-39
2.0432525 -0.66624534 -7.0333481e-06 4.978564e-39
2.054925 -0.66424215 -6.6161156e-06 4.978564e-39
2.0666707 -0.66444439 -6.3975654e-06 4.978564e-39
2.0745549 -0.66383982 -8.9406967e-06 4.978564e-39
2.0824692 -0.66546208 -6.9141388e-06 4.978564e-39
2.0936215 -0.66461194 -6.5565109e-06 4.978564e-39
2.1064503 -0.665883 -8.1062317e-06 4.978564e-39
2.1145186 -0.66527295 -7.2717667e-06 4.978564e-39
2.1226256 -0.66465998 -6.4373016e-06 4.978564e-39
2.1348655 -0.66486728 -6.377697e-06 4.978564e-39
2.1471851 -0.66507977 -7.0333481e-06 4.978564e-39
2.1554499 -0.66674113 -6.3180923e-06 4.978564e-39
2.1637576 -0.66383922 -7.7486038e-06 4.978564e-39
2.1721046 -0.66550624 -8.4638596e-06 4.978564e-39
2.3113778 -0.66709036 -7.1525574e-06 4.978564e-39
2.3204603 -0.6688379 -8.7022781e-06 4.978564e-39
2.3947904 -0.66361791 -8.7022781e-06 4.978564e-39
2.404294 -0.66050255 -6.0796738e-06 4.978564e-39
0.5046764 -0.65513599 -5.2154064e-06 4.978564e-39
0.51464367 -0.65493929 -3.8688831e-06 4.978564e-39
0.52492726 -0.65509194 -6.4969063e-06 4.978564e-39
0.53522813 -0.65500814 -4.1961671e-06 4.978564e-39
0.54564452 -0.65504497 -4.2650436e-06 4.978564e-39
0.55382919 -0.6548577 -4.529953e-06 4.978564e-39
1.5486431 -0.65547794 -4.529953e-06 4.978564e-39
1.5576535 -0.65463042 -6.532669e-06 4.978564e-39
1.5655762 -0.65577126 -5.1259995e-06 4.978564e-39
1.5746943 -0.65491903 -6.0796738e-06 4.978564e-39
1.5850168 -0.65585405 -5.1736833e-06 4.978564e-39
1.5942544 -0.65499657 -5.8412552e-06 4.978564e-39
1.6035566 -0.65413266 -5.6505205e-06 4.978564e-39
1.6140921 -0.65507495 -6.4134597e-06 4.978564e-39
1.6264814 -0.65489846 -7.2717667e-06 4.978564e-39
1.6353908 -0.65504539 -5.6028366e-06 4.978564e-39
1.6443628 -0.65519536 -5.6028366e-06 4.978564e-39
1.6570126 -0.65501493 -5.3167341e-06 4.978564e-39
1.6655054 -0.65424383 -6.1988831e-06 4.978564e-39
1.6752764 -0.65531659 -5.5074693e-06 4.978564e-39
1.6838746 -0.65454113 -5.6624413e-06 4.978564e-39
1.6931497 -0.65469229 -6.2187514e-06 4.978564e-39
1.7062294 -0.65450746 -7.367134e-06 4.978564e-39
1.7150074 -0.65570801 -5.8412552e-06 4.978564e-39
1.725112 -0.65480995 -5.7458878e-06 4.978564e-39
1.7340053 -0.65402043 -7.1525574e-06 4.978564e-39
1.7442398 -0.65511799 -7.390976e-06 4.978564e-39
1.7564784 -0.65504652 -6.4373016e-06 4.978564e-39
1.7662095 -0.65520173 -7.390976e-06 4.978564e-39
1.7760072 -0.6553582 -5.6624413e-06 4.978564e-39
1.7858645 -0.65551549 -6.7949295e-06 4.978564e-39
1.7964557 -0.65459549 -6.9856642e-06 4.978564e-39
1.805776 -0.65583342 -6.4373016e-06 4.978564e-39
1.816507 -0.65490896 -7.4625013e-06 4.978564e-39
1.8259492 -0.65409446 -6.4373016e-06 4.978564e-39
1.83682 -0.65522569 -6.3180923e-06 4.978564e-39
1.846388 -0.6544072 -6.1988831e-06 4.978564e-39
1.8532624 -0.65589917 -7.1525574e-06 4.978564e-39
1.8629401 -0.65507805 -7.390976e-06 4.978564e-39
1.8740648 -0.65622675 -6.7949295e-06 4.978564e-39
1.8838718 -0.65540111 -7.0333481e-06 4.978564e-39
1.8951483 -0.65445226 -8.225441e-06 4.978564e-39
1.9057963 -0.6546126 -5.7816505e-06 4.978564e-39
1.9165106 -0.65477324 -5.4836273e-06 4.978564e-39
1.9236999 -0.65417397 -7.5101852e-06 4.978564e-39
1.9352694 -0.65534139 -7.3194506e-06 4.978564e-39
1.9454552 -0.65449762 -7.9870224e-06 4.978564e-39
1.9527701 -0.6560359 -6.0796738e-06 4.978564e-39
1.9630759 -0.65518916 -6.8902968e-06 4.978564e-39
1.974923 -0.65637481 -5.4836273e-06 4.978564e-39
1.9861195 -0.65437937 -5.9008598e-06 4.978564e-39
1.9973837 -0.65454346 -5.7617822e-06 4.978564e-39
2.0049415 -0.6539278 -6.7949295e-06 4.978564e-39
2.0125325 -0.65549427 -6.7949295e-06 4.978564e-39
2.0232244 -0.65462983 -7.2479247e-06 4.978564e-39
2.0355167 -0.65583545 -5.8412552e-06 4.978564e-39
2.0432525 -0.6552158 -7.0333481e-06 4.978564e-39
2.0549247 -0.65538734 -6.6161156e-06 4.978564e-39
2.0666714 -0.65333712 -6.7949295e-06 4.978564e-39
2.074553 -0.6549322 -7.7486038e-06 4.978564e-39
2.0824704 -0.65653431 -7.5101852e-06 4.978564e-39
2.0944214 -0.65447271 -7.1525574e-06 4.978564e-39
2.1064503 -0.65464306 -8.1062317e-06 4.978564e-39
2.1145203 -0.65400678 -8.4638596e-06 4.978564e-39
2.1226256 -0.65562499 -6.4373016e-06 4.978564e-39
2.134048 -0.65473205 -7.2717667e-06 4.978564e-39
2.1471851 -0.65597939 -7.0333481e-06 4.978564e-39
2.1554499 -0.65533811 -6.3180923e-06 4.978564e-39
2.1637576 -0.65469474 -7.7486038e-06 4.978564e-39
2.1721046 -0.65633947 -8.4638596e-06 4.978564e-39
2.1973865 -0.65439528 -7.7486038e-06 4.978564e-39
2.2058959 -0.65142643 -7.0333481e-06 4.978564e-39
0.49470499 -0.64058018 -0.00046362774 4.978564e-39
0.50461078 -0.64537954 -5.2101473e-06 4.978564e-39
0.51474583 -0.64495236 -3.8862227e-06 4.978564e-39
0.52492732 -0.64493221 -5.6491958e-06 4.978564e-39
0.53522795 -0.64515108 -4.4731869e-06 4.978564e-39
0.5456441 -0.64476818 -4.0009618e-06 4.978564e-39
0.55382943 -0.64514232 -5.0961971e-06 4.978564e-39
1.5486431 -0.64421791 -4.529953e-06 4.978564e-39
1.5565244 -0.64532697 -6.222725e-06 4.978564e-39
1.5655762 -0.64444363 -5.1259995e-06 4.978564e-39
1.5735514 -0.64555949 -5.7220459e-06 4.978564e-39
1.5855929 -0.64534456 -5.3048134e-06 4.978564e-39
1.5942544 -0.64546144 -5.8412552e-06 4.978564e-39
1.6023909 -0.64467865 -5.5789947e-06 4.978564e-39
1.6152661 -0.64536107 -5.2690507e-06 4.978564e-39
1.6270742 -0.64423436 -7.5340272e-06 4.978564e-39
1.6353917 -0.64537382 -6.6359839e-06 4.978564e-39
1.6449636 -0.64446574 -6.508827e-06 4.978564e-39
1.6558039 -0.64538515 -5.9843064e-06 4.978564e-39
1.6655053 -0.64447153 -6.1988831e-06 4.978564e-39
1.674053 -0.64562684 -6.6280363e-06 4.978564e-39
1.6838754 -0.64470798 -6.3180923e-06 4.978564e-39
1.69315 -0.64482802 -6.4373016e-06 4.978564e-39
1.7049782 -0.64471543 -6.8187715e-06 4.978564e-39
1.7150074 -0.64577091 -5.8412552e-06 4.978564e-39
1.7238457 -0.64495611 -5.9366225e-06 4.978564e-39
1.7340053 -0.64402014 -7.1525574e-06 4.978564e-39
1.7429571 -0.64520103 -7.390976e-06 4.978564e-39
1.7564784 -0.64497143 -6.4373016e-06 4.978564e-39
1.7662095 -0.64509428 -7.390976e-06 4.978564e-39
1.7760071 -0.64521807 -5.6823096e-06 4.978564e-39
1.7858646 -0.64534259 -6.7949295e-06 4.978564e-39
1.7951273 -0.64450669 -6.1750411e-06 4.978564e-39
1.805776 -0.64559424 -6.4373016e-06 4.978564e-39
1.8151624 -0.64475459 -7.7962877e-06 4.978564e-39
1.8259492 -0.64584941 -6.4373016e-06 4.978564e-39
1.8354574 -0.64500433 -6.3180923e-06 4.978564e-39
1.846388 -0.64610767 -6.1988831e-06 4.978564e-39
1.8532624 -0.64550191 -7.1525574e-06 4.978564e-39
1.8643258 -0.64452583 -6.4373016e-06 4.978564e-39
1.8740648 -0.6457603 -6.7949295e-06 4.978564e-39
1.885277 -0.64477885 -6.7949295e-06 4.978564e-39
1.8951483 -0.64391565 -8.225441e-06 4.978564e-39
1.9065084 -0.64503467 -5.8174132e-06 4.978564e-39
1.9165106 -0.64416552 -5.4836273e-06 4.978564e-39
1.9236999 -0.64566863 -7.5101852e-06 4.978564e-39
1.9338182 -0.64479601 -6.8664549e-06 4.978564e-39
1.9454552 -0.64593434 -7.9870224e-06 4.978564e-39
1.9527701 -0.64530754 -6.0796738e-06 4.978564e-39
1.9638144 -0.64544106 -6.9141388e-06 4.978564e-39
1.974923 -0.64557266 -5.4836273e-06 4.978564e-39
1.9861195 -0.64570785 -5.9008598e-06 4.978564e-39
1.9973826 -0.64366615 -4.8875809e-06 4.978564e-39
2.0049405 -0.64520586 -6.1988831e-06 4.978564e-39
2.0125325 -0.64456695 -6.7949295e-06 4.978564e-39
2.0239925 -0.64470088 -8.7022781e-06 4.978564e-39
2.0355182 -0.64483207 -6.6359839e-06 4.978564e-39
2.0432525 -0.6441862 -7.0333481e-06 4.978564e-39
2.055706 -0.64535999 -7.081032e-06 4.978564e-39
2.0666733 -0.64445162 -7.9870224e-06 4.978564e-39
2.0745513 -0.64602458 -6.5565109e-06 4.978564e-39
2.0824707 -0.6453743 -7.7088671e-06 4.978564e-39
2.0944214 -0.64551282 -7.1525574e-06 4.978564e-39
2.1064503 -0.64340317 -8.1062317e-06 4.978564e-39
2.1145203 -0.64499336 -8.4638596e-06 4.978564e-39
2.1226256 -0.64658999 -6.4373016e-06 4.978564e-39
2.1348665 -0.64446819 -7.0333481e-06 4.978564e-39
2.1471851 -0.64460391 -7.0333481e-06 4.978564e-39
2.1554499 -0.64393514 -6.3180923e-06 4.978564e-39
2.1637576 -0.64555019 -7.7486038e-06 4.978564e-39
2.1721046 -0.64488101 -8.4638596e-06 4.978564e-39
2.1889169 -0.64583468 -7.2717667e-06 4.978564e-39
2.1973865 -0.64516121 -7.7486038e-06 4.978564e-39
2.2058959 -0.64448392 -7.0333481e-06 4.978564e-39
2.2447212 -0.6449042 -7.212162e-06 4.978564e-39
0.50467658 -0.6350466 -4.9273171e-06 4.978564e-39
0.51474583 -0.63520736 -4.5923962e-06 4.978564e-39
0.52492726 -0.63477319 -6.5118074e-06 4.978564e-39
0.53522843 -0.63529432 -4.9948694e-06 4.978564e-39
0.54571283 -0.63480121 -4.9016053e-06 4.978564e-39
0.55382937 -0.63502192 -5.3460781e-06 4.978564e-39
1.5486431 -0.63483453 -4.529953e-06 4.978564e-39
1.5570894 -0.63492054 -6.8545341e-06 4.978564e-39
1.565577 -0.63500422 -5.8412552e-06 4.978564e-39
1.5741234 -0.63509053 -6.377697e-06 4.978564e-39
1.5861697 -0.6348294 -6.222725e-06 4.978564e-39
1.5942544 -0.63592625 -5.8412552e-06 4.978564e-39
1.6035572 -0.63500071 -6.1750411e-06 4.978564e-39
1.6140916 -0.63587248 -6.1273577e-06 4.978564e-39
1.62589 -0.63470733 -8.0585478e-06 4.978564e-39
1.6353923 -0.63570189 -7.1525574e-06 4.978564e-39
1.6437635 -0.63487935 -6.1273577e-06 4.978564e-39
1.6564087 -0.63461298 -5.9604645e-06 4.978564e-39
1.6655053 -0.63469923 -6.1988831e-06 4.978564e-39
1.6746651 -0.63478738 -6.377697e-06 4.978564e-39
1.6838754 -0.63487458 -6.3180923e-06 4.978564e-39
1.69315 -0.63496375 -6.4373016e-06 4.978564e-39
1.7062294 -0.63469166 -7.367134e-06 4.978564e-39
1.7150074 -0.6358338 -5.8412552e-06 4.978564e-39
1.725112 -0.6348685 -5.7458878e-06 4.978564e-39
1.7340053 -0.63401985 -7.1525574e-06 4.978564e-39
1.7442391 -0.63504899 -6.8426134e-06 4.978564e-39
1.7564784 -0.63489634 -6.4373016e-06 4.978564e-39
1.7662095 -0.63498676 -7.390976e-06 4.978564e-39
1.7760072 -0.63507801 -5.7220459e-06 4.978564e-39
1.7858645 -0.63516968 -6.7949295e-06 4.978564e-39
1.7957901 -0.63526231 -5.4836273e-06 4.978564e-39
1.805776 -0.63535506 -6.4373016e-06 4.978564e-39
1.8158348 -0.63545001 -7.6293945e-06 4.978564e-39
1.8259492 -0.63554311 -6.4373016e-06 4.978564e-39
1.83682 -0.63454074 -6.3180923e-06 4.978564e-39
1.846388 -0.63573337 -6.1988831e-06 4.978564e-39
1.8532624 -0.63510478 -7.1525574e-06 4.978564e-39
1.8629373 -0.6342181 -5.3405761e-06 4.978564e-39
1.8740648 -0.63529384 -6.7949295e-06 4.978564e-39
1.8838718 -0.63440287 -7.0333481e-06 4.978564e-39
1.8951483 -0.63548636 -8.225441e-06 4.978564e-39
1.905084 -0.6345886 -5.7458878e-06 4.978564e-39
1.9165106 -0.63567936 -5.4836273e-06 4.978564e-39
1.9236999 -0.63503695 -7.5101852e-06 4.978564e-39
1.9345434 -0.63513368 -6.7949295e-06 4.978564e-39
1.9454564 -0.6352306 -8.7817507e-06 4.978564e-39
1.9527701 -0.63457906 -6.0796738e-06 4.978564e-39
1.9645535 -0.63568622 -7.4148179e-06 4.978564e-39
1.9749248 -0.63477111 -6.9141388e-06 4.978564e-39
1.9868691 -0.63588595 -6.6041948e-06 4.978564e-39
1.9973826 -0.63496459 -4.8875809e-06 4.978564e-39
2.0049398 -0.63648391 -5.6028366e-06 4.978564e-39
2.0125325 -0.63363957 -6.7949295e-06 4.978564e-39
2.0247586 -0.63476408 -8.5830688e-06 4.978564e-39
2.0355189 -0.63382846 -7.0333481e-06 4.978564e-39
2.0432525 -0.63536257 -7.0333481e-06 4.978564e-39
2.0541453 -0.63442379 -7.4625013e-06 4.978564e-39
2.0666733 -0.63556564 -7.9870224e-06 4.978564e-39
2.0745513 -0.63489085 -6.5565109e-06 4.978564e-39
2.0824692 -0.63421381 -6.9141388e-06 4.978564e-39
2.095221 -0.63536382 -7.2717667e-06 4.978564e-39
2.1064503 -0.63441122 -8.1062317e-06 4.978564e-39
2.1145203 -0.63597995 -8.4638596e-06 4.978564e-39
2.1226256 -0.63529629 -6.4373016e-06 4.978564e-39
2.1348662 -0.63540053 -7.0333481e-06 4.978564e-39
2.1471851 -0.63322842 -7.0333481e-06 4.978564e-39
2.1554499 -0.63481271 -6.3180923e-06 4.978564e-39
2.1637566 -0.63640535 -7.1525574e-06 4.978564e-39
2.1721046 -0.63342261 -8.4638596e-06 4.978564e-39
2.1889169 -0.63662314 -7.2717667e-06 4.978564e-39
2.1973865 -0.63361865 -7.7486038e-06 4.978564e-39
2.2058959 -0.6352272 -7.0333481e-06 4.978564e-39
2.2403572 -0.63706756 -5.7220459e-06 4.978564e-39
0.50474179 -0.624713 -5.7290581e-06 4.978564e-39
0.51537228 -0.62526584 -5.5233636e-06 4.978564e-39
0.52499408 -0.62491906 -6.577548e-06 4.978564e-39
0.53533316 -0.62519026 -4.6166506e-06 4.978564e-39
0.54564446 -0.62481964 -4.8279762e-06 4.978564e-39
0.55382949 -0.62490135 -5.284945e-06 4.978564e-39
1.5486431 -0.62545115 -4.529953e-06 4.978564e-39
1.5576541 -0.62450802 -7.1048735e-06 4.978564e-39
1.5655779 -0.62556487 -6.5565109e-06 4.978564e-39
1.5746953 -0.62461531 -6.9379807e-06 4.978564e-39
1.5850174 -0.62544012 -5.6982039e-06 4.978564e-39
1.5942544 -0.62448406 -5.8412552e-06 4.978564e-39
1.6023915 -0.62555444 -6.1035157e-06 4.978564e-39
1.6146793 -0.62525189 -6.0995421e-06 4.978564e-39
1.6270733 -0.62494516 -6.6518783e-06 4.978564e-39
1.6353923 -0.62602985 -7.1525574e-06 4.978564e-39
1.6449636 -0.62505788 -6.508827e-06 4.978564e-39
1.6564087 -0.62487096 -5.9604645e-06 4.978564e-39
1.6655053 -0.62492692 -6.1988831e-06 4.978564e-39
1.6746652 -0.62498462 -6.4969063e-06 4.978564e-39
1.6838754 -0.62504119 -6.3180923e-06 4.978564e-39
1.69315 -0.62509942 -6.4373016e-06 4.978564e-39
1.7049782 -0.62490803 -6.8187715e-06 4.978564e-39
1.7150074 -0.62589675 -5.8412552e-06 4.978564e-39
1.7238457 -0.62502313 -5.9366225e-06 4.978564e-39
1.7340053 -0.62401956 -7.1525574e-06 4.978564e-39
1.742955 -0.62514007 -5.7458878e-06 4.978564e-39
1.7567862 -0.62413448 -0.00084478018 4.978564e-39
1.7662095 -0.62487924 -7.390976e-06 4.978564e-39
1.7760073 -0.62493795 -5.7220459e-06 4.978564e-39
1.7858646 -0.62499678 -6.7949295e-06 4.978564e-39
1.7953025 -0.62444741 -0.00038841949 4.978564e-39
1.805776 -0.62511587 -6.4373016e-06 4.978564e-39
1.8158346 -0.62517744 -7.6293945e-06 4.978564e-39
1.8259492 -0.62523675 -6.4373016e-06 4.978564e-39
1.8354578 -0.62432849 -6.6041948e-06 4.978564e-39
1.846388 -0.62535906 -6.1988831e-06 4.978564e-39
1.8532624 -0.62470752 -7.1525574e-06 4.978564e-39
1.8636316 -0.6247676 -5.9902668e-06 4.978564e-39
1.8739754 -0.62539011 -0.00093163102 4.978564e-39
1.8845752 -0.62488914 -7.5101852e-06 4.978564e-39
1.8951483 -0.62494969 -8.225441e-06 4.978564e-39
1.905797 -0.62501109 -6.4969063e-06 4.978564e-39
1.916514 -0.62507278 -7.8678131e-06 4.978564e-39
1.9236999 -0.62440526 -7.5101852e-06 4.978564e-39
1.9352678 -0.62546444 -6.3657762e-06 4.978564e-39
1.9454551 -0.6245262 -7.9870224e-06 4.978564e-39
1.9527701 -0.62599635 -6.0796738e-06 4.978564e-39
1.9630769 -0.62505388 -7.6055526e-06 4.978564e-39
1.9749248 -0.62612939 -6.9141388e-06 4.978564e-39
1.9853714 -0.62517995 -6.3896177e-06 4.978564e-39
1.9973826 -0.62626308 -4.8875809e-06 4.978564e-39
2.0049398 -0.62558192 -5.6028366e-06 4.978564e-39
2.0125325 -0.62489772 -6.7949295e-06 4.978564e-39
2.0239925 -0.62496054 -8.7022781e-06 4.978564e-39
2.0355189 -0.62502539 -7.0333481e-06 4.978564e-39
2.0432525 -0.62653887 -7.0333481e-06 4.978564e-39
2.0549259 -0.62439609 -7.2717667e-06 4.978564e-39
2.0666733 -0.62445813 -7.9870224e-06 4.978564e-39
2.0745513 -0.62375712 -6.5565109e-06 4.978564e-39
2.0824692 -0.62528574 -6.9141388e-06 4.978564e-39
2.093621 -0.62430197 -6.5565109e-06 4.978564e-39
2.1064503 -0.62541926 -8.1062317e-06 4.978564e-39
2.1145203 -0.62471312 -8.4638596e-06 4.978564e-39
2.1226256 -0.62400246 -6.4373016e-06 4.978564e-39
2.1356845 -0.62512696 -6.7949295e-06 4.978564e-39
2.1471851 -0.62412798 -7.0333481e-06 4.978564e-39
2.1554499 -0.62569034 -6.3180923e-06 4.978564e-39
2.1637557 -0.62497443 -6.5565109e-06 4.978564e-39
2.1721027 -0.6242553 -7.2717667e-06 4.978564e-39
2.2490804 -0.62230462 -5.9604645e-06 4.978564e-39
2.3023446 -0.62254179 -7.5101852e-06 4.978564e-39
0.50450867 -0.61523145 -0.00035528452 4.978564e-39
0.51530957 -0.61520392 -5.312264e-06 4.978564e-39
0.52492726 -0.61505169 -6.5267086e-06 4.978564e-39
0.53522801 -0.61509836 -3.9935112e-06 4.978564e-39
0.5456444 -0.61514741 -4.8279762e-06 4.978564e-39
0.55382949 -0.61518568 -5.284945e-06 4.978564e-39
1.5486431 -0.61419123 -4.529953e-06 4.978564e-39
1.5565255 -0.61521667 -7.081032e-06 4.978564e-39
1.5655779 -0.61423713 -6.5565109e-06 4.978564e-39
1.573552 -0.61526775 -6.2942504e-06 4.978564e-39
1.5855937 -0.61492467 -5.9604645e-06 4.978564e-39
1.5942544 -0.61494887 -5.8412552e-06 4.978564e-39
1.6029743 -0.61497486 -6.1392784e-06 4.978564e-39
1.6152668 -0.6146251 -6.0319899e-06 4.978564e-39
1.6258873 -0.61542541 -5.7220459e-06 4.978564e-39
1.6353923 -0.61442333 -7.1525574e-06 4.978564e-39
1.6437635 -0.61547953 -6.1273577e-06 4.978564e-39
1.6564087 -0.61512893 -5.9604645e-06 4.978564e-39
1.6655053 -0.61515462 -6.1988831e-06 4.978564e-39
1.6746653 -0.61518186 -6.4969063e-06 4.978564e-39
1.6838754 -0.61520767 -6.3180923e-06 4.978564e-39
1.693149 -0.61523467 -5.4836273e-06 4.978564e-39
1.7062294 -0.61487597 -7.367134e-06 4.978564e-39
1.7150074 -0.6159597 -5.8412552e-06 4.978564e-39
1.7251117 -0.61492717 -5.7458878e-06 4.978564e-39
1.7340053 -0.61401916 -7.1525574e-06 4.978564e-39
1.7442383 -0.61498004 -6.2942504e-06 4.978564e-39
1.7564784 -0.61474609 -6.4373016e-06 4.978564e-39
1.7662101 -0.61477202 -7.8280764e-06 4.978564e-39
1.7760072 -0.61479789 -5.7220459e-06 4.978564e-39
1.7858645 -0.61482382 -6.7949295e-06 4.978564e-39
1.7957906 -0.61485058 -5.8114529e-06 4.978564e-39
1.8057771 -0.61487716 -7.3115029e-06 4.978564e-39
1.8158338 -0.61490446 -6.9141388e-06 4.978564e-39
1.8259492 -0.61493045 -6.4373016e-06 4.978564e-39
1.8361394 -0.61495852 -7.0333481e-06 4.978564e-39
1.8463897 -0.61498529 -7.5101852e-06 4.978564e-39
1.8532624 -0.61431026 -7.1525574e-06 4.978564e-39
1.8643255 -0.61531043 -6.3896177e-06 4.978564e-39
1.874063 -0.61436033 -5.4836273e-06 4.978564e-39
1.8852774 -0.61536837 -6.9856642e-06 4.978564e-39
1.8951483 -0.61441302 -8.225441e-06 4.978564e-39
1.9065092 -0.61542654 -6.3896177e-06 4.978564e-39
1.9165142 -0.61446506 -7.8678131e-06 4.978564e-39
1.9236999 -0.61589992 -7.5101852e-06 4.978564e-39
1.9338179 -0.61493289 -6.6280363e-06 4.978564e-39
1.9454534 -0.61596233 -6.7949295e-06 4.978564e-39
1.9527701 -0.61526799 -6.0796738e-06 4.978564e-39
1.9638153 -0.61529881 -7.5101852e-06 4.978564e-39
1.9749247 -0.61532724 -6.9141388e-06 4.978564e-39
1.9861202 -0.61535776 -6.4969063e-06 4.978564e-39
1.9973826 -0.61538619 -4.8875809e-06 4.978564e-39
2.0049398 -0.61467981 -5.6028366e-06 4.978564e-39
2.0125325 -0.61615586 -6.7949295e-06 4.978564e-39
2.0232251 -0.61516356 -7.7724453e-06 4.978564e-39
2.0355189 -0.61622232 -7.0333481e-06 4.978564e-39
2.0432525 -0.61550933 -7.0333481e-06 4.978564e-39
2.0549259 -0.61554134 -7.2717667e-06 4.978564e-39
2.0666733 -0.61335057 -7.9870224e-06 4.978564e-39
2.0745513 -0.61485016 -6.5565109e-06 4.978564e-39
2.0824692 -0.61635762 -6.9141388e-06 4.978564e-39
2.0944195 -0.61415261 -5.9604645e-06 4.978564e-39
2.1044276 -0.61755151 -0.00096806348 4.978564e-39
2.1161253 -0.61335403 -0.001276882 4.978564e-39
2.1226256 -0.61496747 -6.4373016e-06 4.978564e-39
2.1348662 -0.61499578 -7.0333481e-06 4.978564e-39
2.1471851 -0.61502761 -7.0333481e-06 4.978564e-39
2.1554499 -0.61656791 -6.3180923e-06 4.978564e-39
2.1637557 -0.61354381 -6.5565109e-06 4.978564e-39
2.1721008 -0.61508799 -6.0796738e-06 4.978564e-39
2.180491 -0.61664104 -8.3446503e-06 4.978564e-39
2.3026357 -0.61824256 -0.00085083069 4.978564e-39
0.50461096 -0.60520208 -5.7991815e-06 4.978564e-39
