# .PCD v0.7 - Point Cloud Data file format
VERSION 0.7
FIELDS x y z rgb
SIZE 4 4 4 4
TYPE F F F F
COUNT 1 1 1 1
WIDTH 1011
HEIGHT 1
VIEWPOINT 0 0 0 1 0 0 0
POINTS 1011
DATA ascii
1.9949472 -0.47578046 0.0027875721 4.978564e-39
1.8325359 -0.46721065 0.0017647314 4.978564e-39
2.3251865 -0.46698692 0.00049447734 4.978564e-39
0.51971924 -0.45774111 0.0058076466 4.978564e-39
1.6425014 -0.44416434 0.0042757681 4.978564e-39
1.9881549 -0.44044185 0.00022846398 4.978564e-39
0.54199439 -0.43817839 0.0060709896 4.978564e-39
1.7091141 -0.43711683 0.0025179496 4.978564e-39
1.7515645 -0.43898934 0.0065227384 4.978564e-39
1.9196843 -0.43107089 0.0041309255 4.978564e-39
1.7795008 -0.42982915 0.0048432755 4.978564e-39
1.7917683 -0.42976147 0.0033185417 4.978564e-39
1.8700013 -0.42860743 0.0029342114 4.978564e-39
1.9005688 -0.42348427 0.0024919359 4.978564e-39
1.9486374 -0.42709339 0.0042136656 4.978564e-39
1.9275769 -0.41583434 0.00038474103 4.978564e-39
1.7013907 -0.39750552 0.0035473944 4.978564e-39
1.9591278 -0.39303187 0.0017202576 4.978564e-39
2.0147533 -0.39719144 0.0034581712 4.978564e-39
1.9081649 -0.38329279 0.00098566164 4.978564e-39
1.5986284 -0.37024462 0.0013544128 4.978564e-39
1.748986 -0.36017856 0.0064793075 4.978564e-39
0.50792778 -0.35255003 0.003970861 4.978564e-39
1.8576163 -0.359162 0.0001663693 4.978564e-39
1.9174837 -0.35353354 0.0030894536 4.978564e-39
1.5694704 -0.34941167 9.148012e-05 4.978564e-39
1.796206 -0.34690574 0.0053761052 4.978564e-39
1.6630139 -0.33722994 0.0029873734 4.978564e-39
2.0182047 -0.33528909 0.0022279241 4.978564e-39
2.1720693 -0.33686906 0.0023354755 4.978564e-39
0.53429157 -0.32191399 0.0021241331 4.978564e-39
1.5587995 -0.32395476 0.0072205262 4.978564e-39
2.0247941 -0.32596213 0.0038247844 4.978564e-39
2.1469603 -0.32935974 0.00061556016 4.978564e-39
1.9468706 -0.31115642 0.0029718655 4.978564e-39
2.0895345 -0.31459099 0.0024079408 4.978564e-39
0.52622139 -0.3076326 0.0050044586 4.978564e-39
1.6130852 -0.30689079 0.0073092477 4.978564e-39
1.7671008 -0.30014384 0.0047747782 4.978564e-39
1.8403157 -0.30069324 0.004860458 4.978564e-39
1.8044478 -0.29461223 0.0025027578 4.978564e-39
0.50533277 -0.27380231 0.000865229 5.3552975e-39
0.51462364 -0.2745772 0.00074540771 5.447133e-39
0.52487391 -0.27452868 0.00075292587 5.4471344e-39
0.53510052 -0.27431276 0.00086588494 5.4467715e-39
0.54507524 -0.27436775 0.00077785895 5.53933e-39
0.55374694 -0.2745316 0.00075253571 5.53933e-39
1.8824805 -0.27288985 0.00036107237 4.978564e-39
2.0421877 -0.27395976 0.0032626537 4.978564e-39
0.50500411 -0.2651177 0.0022083104 5.447133e-39
0.51507854 -0.26533049 0.0021754354 5.447133e-39
0.52476335 -0.26460472 0.0022876919 5.4471344e-39
0.53533459 -0.26537779 0.0023666157 5.4474931e-39
0.54480374 -0.26528966 0.002181828 5.53933e-39
0.55295521 -0.26495588 0.0022334557 5.53933e-39
1.7478105 -0.26891127 0.0065348563 4.978564e-39
1.7519336 -0.2685782 0.0029204192 4.978564e-39
1.8617902 -0.26318538 0.0045017581 4.978564e-39
0.49991229 -0.25319669 0.0040519834 5.447133e-39
0.50493222 -0.25532895 0.0037222097 5.447133e-39
0.51484191 -0.25521851 0.0037393079 5.4471344e-39
0.5249033 -0.25493109 0.0037837655 5.4474931e-39
0.53495598 -0.25509849 0.0037578791 5.5393286e-39
0.54483056 -0.2548697 0.003793319 5.53933e-39
0.55257696 -0.25516698 0.0037473114 5.5396888e-39
2.2361286 -0.25101236 0.0011105583 4.978564e-39
0.49951577 -0.24592175 0.0051770806 5.447133e-39
0.50479257 -0.24468476 0.0053683729 5.447133e-39
0.51517874 -0.24517663 0.0052923136 5.4471344e-39
0.52523124 -0.2450368 0.0053139403 5.5393286e-39
0.53460383 -0.24469434 0.005366948 5.53933e-39
0.54501945 -0.24526273 0.0052790581 5.53933e-39
0.55287778 -0.24430153 0.0054277629 5.6315243e-39
1.5993105 -0.24355394 0.0026738127 4.978564e-39
1.6941782 -0.24334748 0.0043702694 4.978564e-39
1.8048275 -0.24632323 0.00076305546 4.978564e-39
1.8694297 -0.24211316 0.0032266325 4.978564e-39
2.306771 -0.24087901 0.00041174807 4.978564e-39
0.4989222 -0.23503113 0.0068613291 5.447133e-39
0.50504333 -0.23447108 0.0069479547 5.447133e-39
0.51497793 -0.2351273 0.0068465094 5.4471344e-39
0.5246675 -0.23521526 0.0068329051 5.5393286e-39
0.53494549 -0.23474425 0.006688768 5.4474931e-39
0.54533249 -0.23517324 0.0068394691 5.5396888e-39
0.55227435 -0.23432997 0.0069698989 5.6315257e-39
2.1740186 -0.23356141 0.0027794146 4.978564e-39
0.49833003 -0.22416623 0.0085416138 5.447133e-39
0.50502121 -0.22512078 0.0083940085 5.4471344e-39
0.51482809 -0.2244595 0.0084963059 5.5393286e-39
0.52522254 -0.22508641 0.008399385 5.5393286e-39
0.53514796 -0.2248915 0.0084295347 5.53933e-39
0.54474038 -0.22526042 0.0083725154 5.6315243e-39
0.55167228 -0.22438076 0.008508563 5.6315257e-39
1.7581178 -0.22137085 0.0039635226 4.978564e-39
1.9235727 -0.22630292 0.00080360589 4.978564e-39
0.49793604 -0.21693733 0.0096595287 5.4471344e-39
0.50500864 -0.21758915 0.0095588081 5.4471344e-39
0.5145961 -0.21683298 0.009675771 5.5393286e-39
0.5249911 -0.21748525 0.0095748901 5.53933e-39
0.5350334 -0.21719614 0.0096196681 5.5396888e-39
0.54496247 -0.21731606 0.0096011283 5.6315243e-39
0.55163902 -0.21739864 0.0095883608 5.6315257e-39
1.8405763 -0.21115901 0.0050496883 4.978564e-39
1.9467989 -0.21838854 0.0048329094 4.978564e-39
2.182538 -0.21803504 0.0010611045 4.978564e-39
2.2014732 -0.21770762 0.0013839547 4.978564e-39
1.6888951 -0.20924607 0.0019607432 4.978564e-39
1.7059389 -0.20952123 0.0060931435 4.978564e-39
2.060972 -0.20086241 0.00011991497 4.978564e-39
2.1037912 -0.19913439 0.0014701026 4.978564e-39
2.319171 -0.19834922 0.00039752387 4.978564e-39
1.660911 -0.18639921 0.0026643735 4.978564e-39
1.783808 -0.18508823 0.0013389525 4.978564e-39
1.8852183 -0.18403181 0.00436546 4.978564e-39
2.1375911 -0.18252674 0.0028822031 4.978564e-39
1.8664975 -0.17157117 0.0015485821 4.978564e-39
1.5527716 -0.14107689 0.0036042654 4.978564e-39
1.8214947 -0.14837158 0.0060223504 4.978564e-39
1.9718233 -0.14442797 0.0015020038 4.978564e-39
2.0143044 -0.14024688 0.0034419049 4.978564e-39
1.6086369 -0.13609906 0.0055254148 4.978564e-39
1.8623791 -0.12992677 0.0001992024 4.978564e-39
1.6281791 -0.11530989 0.0019778439 4.978564e-39
1.6410838 -0.11942024 0.0023883104 4.978564e-39
1.9717226 -0.1149332 0.0059685358 4.978564e-39
2.125056 -0.110051 0.0042770384 4.978564e-39
2.1350427 -0.11501162 0.00017898559 4.978564e-39
1.6442839 -0.102456 0.0059252344 4.978564e-39
1.7219589 -0.10335085 0.0042495923 4.978564e-39
2.2989073 -0.10890067 0.00015841979 4.978564e-39
1.6358476 -0.098887004 0.0011248799 4.978564e-39
1.7472109 -0.090466231 0.0043372582 4.978564e-39
0.51214015 -0.083626173 0.0098223835 5.4467729e-39
2.0790949 -0.087991938 0.0048123132 4.978564e-39
1.5677446 -0.074143663 0.0056223478 4.978564e-39
1.8947676 -0.078083403 0.00045056094 4.978564e-39
1.7253836 -0.066627972 0.0032108326 4.978564e-39
1.8043864 -0.062517196 0.0045801424 4.978564e-39
1.8186456 -0.067593731 0.0054848297 4.978564e-39
1.6188761 -0.057084166 0.0020967764 4.978564e-39
2.049655 -0.054482333 0.0045405929 4.978564e-39
2.0739322 -0.050774403 0.0020815083 4.978564e-39
2.2657599 -0.054817192 0.0012780632 4.978564e-39
1.9680575 -0.037651021 0.0045857974 4.978564e-39
2.0542624 -0.031371273 0.0026905129 4.978564e-39
2.1297941 -0.030434543 0.0041131042 4.978564e-39
2.2861199 -0.02002869 0.0014858106 4.978564e-39
1.6536056 -0.0011184793 0.0026449808 4.978564e-39
1.8052982 -0.0030904375 5.3793879e-05 4.978564e-39
1.8433522 -0.0087473961 0.00046335405 4.978564e-39
1.6982306 0.0048948564 0.0061900411 4.978564e-39
1.8182304 0.00048469752 0.0054689175 4.978564e-39
1.9255787 0.0064605139 0.0032244495 4.978564e-39
1.6578817 0.01523545 0.0030615288 4.978564e-39
2.0927272 0.018817794 0.00097973156 4.978564e-39
1.5829765 0.024044218 0.0059270822 4.978564e-39
1.9088161 0.022071099 0.00033512237 4.978564e-39
1.7839094 0.038306024 0.00021129106 4.978564e-39
1.7377585 0.042035617 0.0024247998 4.978564e-39
2.3377147 0.047303263 0.00058638304 4.978564e-39
1.6874169 0.068914406 0.0046285107 4.978564e-39
1.9573607 0.068607956 0.0033841992 4.978564e-39
1.8046772 0.077089906 0.00085719692 4.978564e-39
2.2076612 0.075558268 0.0010475606 4.978564e-39
1.8900708 0.090587199 0.0049098767 4.978564e-39
1.9111511 0.096785098 0.0046725385 4.978564e-39
1.9687819 0.10831404 0.0030752656 4.978564e-39
1.7678941 0.11831886 0.00094432465 4.978564e-39
1.8465298 0.1159514 0.0031862466 4.978564e-39
1.9295819 0.11175296 0.0025132534 4.978564e-39
2.1785347 0.11859886 0.001887814 4.978564e-39
1.7892628 0.12935089 0.0032140543 4.978564e-39
1.6944971 0.14433277 0.0049780863 4.978564e-39
1.7969383 0.14613193 0.001135833 4.978564e-39
2.0365794 0.14947346 0.0028079923 4.978564e-39
2.0635154 0.1483929 0.00299597 4.978564e-39
1.7387439 0.15354586 0.0039909934 4.978564e-39
2.0676978 0.1523757 9.966896e-06 4.978564e-39
1.6462457 0.17599657 0.0015700171 4.978564e-39
1.6027836 0.18291956 0.0064463532 4.978564e-39
1.8423402 0.19124947 0.0053728051 4.978564e-39
1.6470083 0.20001584 0.0038824747 4.978564e-39
1.6847053 0.20388028 0.0021854406 4.978564e-39
0.49790788 0.21641806 0.0097395778 4.9857947e-39
0.50458181 0.21716745 0.0096237063 4.9857947e-39
0.51508933 0.21762565 0.009552896 4.9857947e-39
0.52475852 0.21701634 0.0096471785 4.9861534e-39
0.53545135 0.21779658 0.0095265573 4.9861548e-39
0.54423136 0.21673357 0.0096910149 5.0779903e-39
0.55125606 0.21750304 0.0095720291 5.0779903e-39
1.9049215 0.21378532 0.0011096437 4.978564e-39
1.9544311 0.21646327 0.0016281633 4.978564e-39
0.49836525 0.22480941 0.0084417583 4.9857947e-39
0.50478399 0.22464848 0.0084667094 4.9857947e-39
0.51508844 0.22556378 0.0083252564 4.9857947e-39
0.52497774 0.22458267 0.0084770182 4.9861534e-39
0.53552133 0.22550811 0.0083339587 4.9861548e-39
0.54448777 0.22445297 0.0084971748 4.9861548e-39
0.55170459 0.22491413 0.0084258914 5.0779903e-39
0.49895442 0.23561972 0.0067698956 4.9857947e-39
0.50495523 0.23452839 0.0069387397 4.9857947e-39
0.51502347 0.23545726 0.0067951614 4.9857947e-39
0.52457976 0.2348576 0.0068879547 4.9857947e-39
0.53494233 0.23518148 0.0068379166 4.9861548e-39
0.54529774 0.23459058 0.0069293529 4.9861548e-39
0.55230367 0.23481399 0.0068948567 5.0779903e-39
1.9359676 0.23607072 0.0030449664 4.978564e-39
0.49947941 0.24525146 0.0052803457 4.8939592e-39
0.50507385 0.24505304 0.0053110681 4.8939592e-39
0.51505357 0.24484316 0.0053435685 4.9857947e-39
0.52530825 0.24522054 0.005285312 4.9857947e-39
0.53468651 0.24468842 0.0053676157 4.9861548e-39
0.54499704 0.24509771 0.0053043962 4.9861548e-39
0.55290419 0.24473593 0.0053604096 4.9861548e-39
1.8078842 0.24209744 4.5327979e-05 4.978564e-39
0.49987382 0.25248837 0.0041611791 4.8939592e-39
0.50517839 0.25553456 0.0036900546 4.8939592e-39
0.51478815 0.25425822 0.003887492 4.9857947e-39
0.52493572 0.25549981 0.0036955446 4.9857947e-39
0.53493345 0.25470588 0.0038183853 4.9861548e-39
0.54477561 0.25486764 0.0037247723 4.8939592e-39
0.55282772 0.25508466 0.0037599087 4.9861548e-39
1.807142 0.25240514 0.0064360304 4.978564e-39
0.50500923 0.26520401 0.0021946491 4.8939592e-39
0.51483423 0.26451215 0.0023016578 4.8939592e-39
0.5252474 0.26511043 0.0022091805 4.9857947e-39
0.53519058 0.26488599 0.0022439817 4.9857947e-39
0.54479992 0.26522788 0.0021911487 4.9861548e-39
0.55292708 0.2644861 0.0023059349 4.9861548e-39
0.50485557 0.2743265 0.00078379409 4.8939578e-39
0.51568186 0.27449739 0.0012628121 4.8932375e-39
0.52437598 0.27437946 0.00077571318 4.8939592e-39
0.53492814 0.27429065 0.00078950328 4.9857947e-39
0.54560226 0.27420089 0.00080346141 4.9861548e-39
0.55329382 0.27409646 0.00081966142 4.9861548e-39
1.5815545 0.27693021 0.0043023741 4.978564e-39
1.9488661 0.27512386 0.0016715946 4.978564e-39
1.6316936 0.28926888 0.0050339624 4.978564e-39
1.7487692 0.28656751 0.0018127559 4.978564e-39
1.9982057 0.28147259 0.002769897 4.978564e-39
1.6825757 0.29660103 0.0034937453 4.978564e-39
1.9006693 0.30266538 0.00088928861 4.978564e-39
0.52234495 0.3112545 0.0033924375 4.978564e-39
1.9919749 0.31927508 0.00099280628 4.978564e-39
2.136234 0.31237644 0.0014537104 4.978564e-39
1.9029106 0.33699575 0.0021816285 4.978564e-39
1.948022 0.33653629 0.00075719476 4.978564e-39
2.0630631 0.33791482 0.0010725871 4.978564e-39
2.1080067 0.33198148 0.0030757622 4.978564e-39
1.6209967 0.3536399 0.00049431447 4.978564e-39
1.6340911 0.35415915 0.0035078428 4.978564e-39
2.0250995 0.35408497 0.0024792627 4.978564e-39
1.6429054 0.36705801 0.0023303831 4.978564e-39
1.7311655 0.36132744 0.0048275008 4.978564e-39
1.7916658 0.36341417 0.0046104649 4.978564e-39
2.1096718 0.37217674 0.000540854 4.978564e-39
1.8004968 0.392277 0.0023319421 4.978564e-39
2.2145953 0.39727998 0.0014418768 4.978564e-39
1.5536649 0.41565412 0.0060184696 4.978564e-39
1.7638363 0.42836741 0.0017864555 4.978564e-39
0.53086644 0.43813142 0.00078029232 4.978564e-39
1.6448982 0.43300918 0.0075300578 4.978564e-39
1.6952677 0.433961 0.0010050822 4.978564e-39
1.8912203 0.43687233 0.0037844167 4.978564e-39
0.52503961 0.45396298 0.0086286999 4.978564e-39
1.5563976 0.45182866 0.0050759511 4.978564e-39
1.8955039 0.45674163 0.00021931817 4.978564e-39
1.7978771 0.47724205 0.0056698341 4.978564e-39
2.2548349 0.47657597 8.6896216e-05 4.978564e-39
1.9944935 0.48576435 0.0044368408 4.978564e-39
1.7838348 0.49547568 0.0030745901 4.978564e-39
1.7900229 0.49933606 0.0024398952 4.978564e-39
1.8237327 0.49993494 0.0014840488 4.978564e-39
1.8479899 0.49275568 0.0017963646 4.978564e-39
1.6959842 0.50891733 0.0068971356 4.978564e-39
0.52611399 0.51901948 0.0035221083 4.978564e-39
1.7708791 0.52108306 0.0011206503 4.978564e-39
1.928921 0.52080673 0.0058108573 4.978564e-39
0.54070884 0.53198439 0.00078663777 4.978564e-39
0.55514383 0.53225428 0.0092980647 4.978564e-39
1.5877266 0.53084159 0.0013085702 4.978564e-39
1.6458654 0.53207612 0.0060248347 4.978564e-39
1.7149185 0.53515631 0.0034071049 4.978564e-39
1.7735645 0.5365777 0.0046184273 4.978564e-39
1.6660761 0.55587816 0.0074036876 4.978564e-39
1.6996683 0.5515151 0.0032507656 4.978564e-39
2.1269128 0.55267173 0.0035482913 4.978564e-39
2.0502889 0.56827807 0.0040884628 4.978564e-39
1.8625462 0.57971776 0.0055186148 4.978564e-39
2.1386642 0.57769531 0.0031839355 4.978564e-39
2.2448971 0.57469106 0.0018864101 4.978564e-39
1.7950389 0.58142126 0.0040579243 4.978564e-39
1.851957 0.58178955 0.0039662812 4.978564e-39
1.869266 0.58816671 0.0046588276 4.978564e-39
2.1002407 0.58117425 0.0017504296 4.978564e-39
1.8306112 0.59326625 0.0064211613 4.978564e-39
1.6350155 0.60279155 0.0054678917 4.978564e-39
1.9270695 0.60614192 0.00028330594 4.978564e-39
2.114851 0.616831 0.001013062 4.978564e-39
2.2980247 0.61389214 0.0012140112 4.978564e-39
1.9277664 0.62164652 0.0027406798 4.978564e-39
1.9566647 0.6264624 0.0010595385 4.978564e-39
1.7854987 0.64860678 0.0065170093 4.978564e-39
1.674387 0.65440035 0.00016827052 4.978564e-39
1.7127867 0.65185958 0.0030683035 4.978564e-39
1.7460806 0.65059638 0.0010960165 4.978564e-39
0.51844847 0.67224813 0.0056953561 4.978564e-39
1.6460432 0.6741634 0.0016982562 4.978564e-39
1.6938175 0.67770052 0.0031226331 4.978564e-39
1.9816363 0.67082375 7.4070689e-05 4.978564e-39
2.1361749 0.67038512 0.00048540905 4.978564e-39
2.1847246 0.6736092 0.0023207155 4.978564e-39
2.2910755 0.67154604 0.0015427069 4.978564e-39
1.6898619 0.68798816 0.0022596635 4.978564e-39
1.7500645 0.68597537 0.0048972019 4.978564e-39
1.7887495 0.69965458 0.0020166798 4.978564e-39
2.0626347 0.69459766 0.00017658959 4.978564e-39
2.1005433 0.69268399 1.689069e-05 4.978564e-39
2.3019869 0.69006628 0.0005644965 4.978564e-39
1.5458273 0.71630239 0.00039294106 4.978564e-39
2.1360621 0.71189976 0.0030855332 4.978564e-39
1.9695661 0.72590089 0.0031688127 4.978564e-39
1.7556021 0.74325013 0.0052245762 4.978564e-39
1.8528585 0.75256962 0.0052216044 4.978564e-39
1.7299486 0.76003242 0.0064813965 4.978564e-39
1.5802227 0.78940243 0.0069707525 4.978564e-39
1.7082157 0.78381461 0.00027571025 4.978564e-39
1.641649 0.79728997 0.0028197919 4.978564e-39
1.2169065 0.80633312 0.0027894264 4.978564e-39
1.9661113 0.80761856 0.0024543437 4.978564e-39
0.89047581 0.81308818 0.0066791759 4.978564e-39
1.5525467 0.81738049 0.0031438894 4.978564e-39
1.6867495 0.81236351 0.0030758223 4.978564e-39
1.7939163 0.81514943 0.0015808116 4.978564e-39
1.9169905 0.81622469 0.00012357986 4.978564e-39
0.88801432 0.82817268 0.0066491854 4.978564e-39
1.5605577 0.82338995 0.0018026154 4.978564e-39
1.7214025 0.82010508 0.001791689 4.978564e-39
1.7602561 0.82503271 0.005083689 4.978564e-39
1.7820181 0.82416838 0.0060782419 4.978564e-39
2.1239023 0.82220781 0.0014333648 4.978564e-39
2.310298 0.82921779 0.0006556522 4.978564e-39
0.89532119 0.83956265 0.0012660262 4.978564e-39
1.026997 0.83675975 0.0047042775 4.978564e-39
1.0505033 0.83492309 0.0029091805 4.978564e-39
1.8896945 0.83585596 0.0023890301 4.978564e-39
1.9017694 0.83999085 0.0054408284 4.978564e-39
1.9810529 0.83250391 0.0048676678 4.978564e-39
1.4380331 0.84641701 0.0081399987 4.978564e-39
2.0090477 0.84857303 0.00060386193 4.978564e-39
1.1522195 0.85343367 0.0033545024 4.978564e-39
1.4242513 0.85755318 0.0071242563 4.978564e-39
1.5732106 0.86700958 0.0042733229 4.978564e-39
1.9464552 0.8631295 0.0038990288 4.978564e-39
1.7113415 0.87488377 0.00066166127 4.978564e-39
1.8733997 0.87433225 0.0036981443 4.978564e-39
0.85473078 0.88922715 0.0040218779 4.978564e-39
1.1980672 0.88377911 0.0038955631 4.978564e-39
1.7550108 0.89231968 0.0044806446 4.978564e-39
2.0152318 0.89181536 0.0024319231 4.978564e-39
0.91761112 0.90846729 0.0026011779 4.978564e-39
1.067786 0.9032253 0.0089907562 4.978564e-39
1.1417627 0.90498626 0.0086985398 4.978564e-39
1.3840188 0.90312636 0.0015179816 4.978564e-39
1.5554043 0.90549403 0.0035680148 4.978564e-39
1.6780678 0.90473843 0.0054974207 4.978564e-39
1.8639451 0.90772361 0.0047054761 4.978564e-39
2.1492457 0.90120631 0.00017027889 4.978564e-39
2.189281 0.90652323 0.0025534811 4.978564e-39
0.82686478 0.91595536 0.007612295 4.978564e-39
1.3432213 0.92879486 0.0072284252 4.978564e-39
1.5581056 0.92228127 0.0078301942 4.978564e-39
2.1891215 0.92834753 0.0027439306 4.978564e-39
0.8122043 0.94201016 0.0068269926 4.978564e-39
1.3840928 0.94196105 0.0037308212 4.978564e-39
1.6001369 0.94443828 0.0029922638 4.978564e-39
2.0185161 0.94647551 0.0013331159 4.978564e-39
0.82312196 0.95283681 0.0039352681 4.978564e-39
1.1962745 0.9509933 0.0019497826 4.978564e-39
1.2138491 0.95060766 0.00082401361 4.978564e-39
1.4760063 0.95521027 0.00050974055 4.978564e-39
2.0794902 0.95457113 0.0037313518 4.978564e-39
1.0450194 0.96295506 0.008234906 4.978564e-39
1.2195975 0.9609617 0.0052216235 4.978564e-39
1.9581095 0.96245891 0.0014248518 4.978564e-39
0.9223159 0.97783703 0.00087116269 4.978564e-39
1.1075801 0.9769575 0.00078050053 4.978564e-39
1.3780494 0.97995287 0.0022660068 4.978564e-39
1.4363326 0.97213513 0.0041219522 4.978564e-39
1.1651025 0.982795 0.0044494318 4.978564e-39
1.5030251 0.98519844 0.0063454239 4.978564e-39
1.625162 0.98134029 0.0070946524 4.978564e-39
0.87024891 0.99457234 0.0041793622 4.978564e-39
1.0075964 0.99098676 0.0071005621 4.978564e-39
1.8682722 0.99500418 0.0057403729 4.978564e-39
1.9156986 0.99697852 0.001469553 4.978564e-39
2.0048831 0.99362165 0.0041185538 4.978564e-39
1.2014849 1.0036356 0.0015287172 4.978564e-39
1.6037866 1.0015236 0.0065167053 4.978564e-39
1.656971 1.004704 0.0056946217 4.978564e-39
1.8371634 1.0012863 0.0046266243 4.978564e-39
0.9048093 1.0168796 0.006234345 4.978564e-39
1.3512453 1.0143622 0.008085507 4.978564e-39
1.7825892 1.0180737 0.0037370066 4.978564e-39
1.2220694 1.0298951 0.0077999835 4.978564e-39
1.8104438 1.0245395 0.00051983038 4.978564e-39
1.999652 1.0226927 0.00082850212 4.978564e-39
0.8727563 1.0353668 0.003131758 4.978564e-39
2.261879 1.037885 0.0023952185 4.978564e-39
1.0375181 1.0468556 0.0028107997 4.978564e-39
1.1151764 1.0425876 0.0024450317 4.978564e-39
1.2083848 1.0480281 0.0022698848 4.978564e-39
1.648367 1.0496742 0.0051304884 4.978564e-39
1.083241 1.0503403 0.0049123457 4.978564e-39
1.1579171 1.0524579 0.00046792565 4.978564e-39
1.2910657 1.0503485 0.0010958724 4.978564e-39
1.5377289 1.0551543 0.0068667168 4.978564e-39
1.6877663 1.0530182 0.0038131694 4.978564e-39
1.8086355 1.052058 0.0010175565 4.978564e-39
2.1235332 1.0578619 0.00011505337 4.978564e-39
2.13871 1.0535586 0.0008138105 4.978564e-39
2.2040646 1.0530186 0.00052082492 4.978564e-39
1.5854822 1.0604745 0.0020502575 4.978564e-39
1.6563967 1.0622669 0.0069293953 4.978564e-39
2.0730886 1.0672611 0.00094006117 4.978564e-39
2.097542 1.0600618 0.0028601591 4.978564e-39
0.96315616 1.078463 0.0091302078 4.978564e-39
1.1662253 1.0705713 0.0041057966 4.978564e-39
1.3247758 1.0720946 0.006692546 4.978564e-39
2.101984 1.070999 0.0020516452 4.978564e-39
0.98329085 1.0885559 0.0084639266 4.978564e-39
1.0067976 1.0808337 0.0043274942 4.978564e-39
1.2877946 1.0826936 0.0058757537 4.978564e-39
1.4718049 1.0876626 0.0013846174 4.978564e-39
1.5980723 1.0829096 0.0062523861 4.978564e-39
1.8357301 1.0810896 0.0026758607 4.978564e-39
2.0303547 1.0823578 0.0050119502 4.978564e-39
0.81374848 1.0980271 0.0093448739 4.978564e-39
1.0210766 1.0949172 0.0049702986 4.978564e-39
1.2486911 1.0907388 0.0026154253 4.978564e-39
1.7445581 1.0943692 0.0055935667 4.978564e-39
1.8464458 1.0949144 0.00034571462 4.978564e-39
2.1095521 1.0905762 0.00044153555 4.978564e-39
0.9824965 1.1048076 0.0071145566 4.978564e-39
1.1181633 1.1029454 0.0078021432 4.978564e-39
1.2658452 1.1097356 0.0055494457 4.978564e-39
1.326615 1.1067066 0.0030541855 4.978564e-39
1.3399321 1.1073109 0.0069701667 4.978564e-39
1.6140407 1.1099389 0.00022891544 4.978564e-39
2.041033 1.109044 0.0015635972 4.978564e-39
2.1128478 1.1064613 0.0019440096 4.978564e-39
1.1461226 1.1158642 0.004208087 4.978564e-39
1.9141694 1.1179106 0.0025537959 4.978564e-39
1.1670372 1.1241442 0.0060087144 4.978564e-39
1.5274298 1.1209415 0.0068907999 4.978564e-39
1.6084576 1.1241823 0.0044481927 4.978564e-39
2.3284931 1.1219082 0.00089774467 4.978564e-39
1.3727415 1.1398803 0.0015709311 4.978564e-39
1.0794816 1.1409069 0.0033664748 4.978564e-39
1.2358184 1.1461945 0.0018878857 4.978564e-39
1.5934091 1.1553341 0.0015570055 4.978564e-39
2.0111117 1.1573685 0.000722292 4.978564e-39
0.92526019 1.161785 0.0035657273 4.978564e-39
1.3024572 1.1641324 0.0015911872 4.978564e-39
1.3225727 1.1638005 0.0066696107 4.978564e-39
1.431038 1.1643722 0.0032238481 4.978564e-39
2.0457914 1.1694808 0.0047386638 4.978564e-39
0.9183203 1.1762856 0.0011042281 4.978564e-39
1.2866908 1.1771622 0.0055138618 4.978564e-39
1.1380332 1.182956 0.0042156954 4.978564e-39
1.4478729 1.1829638 0.0018234814 4.978564e-39
1.6293257 1.1828172 0.0016725676 4.978564e-39
1.6427643 1.1839209 0.0030544046 4.978564e-39
1.7941155 1.1828103 0.0027934955 4.978564e-39
2.2761109 1.1889315 0.003357043 4.978564e-39
0.88879478 1.1953572 0.0027904392 4.978564e-39
1.2063843 1.1969883 0.0067486595 4.978564e-39
1.5521183 1.1987888 0.0038531548 4.978564e-39
1.6124593 1.1961585 0.0029914791 4.978564e-39
1.7370571 1.1955462 0.0062099388 4.978564e-39
2.1834388 1.1989863 0.001434038 4.978564e-39
2.2818727 1.1971685 0.0013727692 4.978564e-39
0.82732111 1.204278 0.0045891413 4.978564e-39
0.9612698 1.2090944 0.004212996 4.978564e-39
1.023831 1.200662 0.0088119823 4.978564e-39
1.0777833 1.2075143 0.0066325818 4.978564e-39
1.0854614 1.2043047 0.0083247488 4.978564e-39
1.3302894 1.2088965 0.0040906142 4.978564e-39
2.0323346 1.2000695 0.005017729 4.978564e-39
2.0790844 1.2094804 0.0037766565 4.978564e-39
2.1651411 1.2054541 0.00067030831 4.978564e-39
1.0336535 1.2168045 0.0042756512 4.978564e-39
1.9062213 1.2117008 0.0015074895 4.978564e-39
0.96007282 1.2219062 0.0060114176 4.978564e-39
1.2842535 1.2274282 3.9930852e-05 4.978564e-39
1.3137366 1.2295161 0.007981048 4.978564e-39
1.5270952 1.2298484 0.0049090236 4.978564e-39
1.3025714 1.2301205 0.0012314559 4.978564e-39
1.3678536 1.2384604 0.003171813 4.978564e-39
1.4176029 1.2393565 0.00063846144 4.978564e-39
2.2002451 1.2319971 0.0014764044 4.978564e-39
2.2207804 1.2336143 0.0010921413 4.978564e-39
0.97319931 1.2491562 0.0032235035 4.978564e-39
2.2674904 1.242949 0.00074473175 4.978564e-39
0.95631468 1.2543461 0.0016683497 4.978564e-39
1.0532115 1.2582835 0.0013817718 4.978564e-39
1.3370965 1.2502285 0.00097426231 4.978564e-39
1.7588105 1.252915 0.0059966994 4.978564e-39
1.5348852 1.2760721 0.0060499432 4.978564e-39
1.6041884 1.2722754 0.0074458211 4.978564e-39
1.6547673 1.2774723 0.0025191857 4.978564e-39
1.7291028 1.2771286 0.0050589801 4.978564e-39
1.8530409 1.2738156 0.00476261 4.978564e-39
1.0566133 1.2862097 0.007460176 4.978564e-39
1.3965515 1.2855868 0.0037307055 4.978564e-39
2.0676575 1.2861792 0.0032557261 4.978564e-39
0.94918227 1.2981544 0.0056203133 4.978564e-39
1.0124068 1.2991723 0.0081795128 4.978564e-39
1.7838962 1.2952139 0.0017376251 4.978564e-39
2.143925 1.2988468 0.0027030413 4.978564e-39
0.82183003 1.300544 0.0031668339 4.978564e-39
0.96130294 1.3038007 0.0059886947 4.978564e-39
1.0913709 1.309345 0.0069773118 4.978564e-39
1.789115 1.3081664 0.0053073843 4.978564e-39
2.0904908 1.3014642 0.0026216039 4.978564e-39
1.0391212 1.3136027 0.0060502714 4.978564e-39
1.5532222 1.3149283 0.0032213957 4.978564e-39
1.5770284 1.3154149 0.0076402901 4.978564e-39
1.6875044 1.3104355 0.0019409234 4.978564e-39
1.7697229 1.3144301 0.0042336565 4.978564e-39
0.90539378 1.329152 0.0054452098 4.978564e-39
0.92778611 1.3215756 0.0074837469 4.978564e-39
0.9858638 1.3220854 0.0036930158 4.978564e-39
1.3958715 1.3289647 0.007773831 4.978564e-39
1.6053025 1.3286985 0.00080757804 4.978564e-39
1.7028619 1.3282453 0.0060064299 4.978564e-39
1.9249232 1.3225789 0.0016166267 4.978564e-39
0.89213675 1.3378463 0.0016838182 4.978564e-39
1.0439419 1.3341727 0.0059930827 4.978564e-39
1.3192799 1.3378656 0.00062827789 4.978564e-39
2.0031772 1.3376942 0.0011360034 4.978564e-39
2.2547026 1.3368516 0.0027779394 4.978564e-39
0.87916297 1.348979 0.0028974281 4.978564e-39
1.3531711 1.3488106 0.0070822695 4.978564e-39
0.88993508 1.3543994 0.009728414 4.978564e-39
0.98227113 1.353065 0.0044122641 4.978564e-39
1.0181671 1.3570158 0.0090923142 4.978564e-39
1.0547065 1.3594371 0.0092964722 4.978564e-39
1.1113544 1.3593569 0.0029816248 4.978564e-39
2.3290756 1.3544014 0.0035040132 4.978564e-39
2.3303075 1.353464 0.0018087635 4.978564e-39
0.939888 1.3615943 0.0071380013 4.978564e-39
1.3391649 1.3624058 0.0027065834 4.978564e-39
1.4548879 1.3612322 0.00055531214 4.978564e-39
1.6361233 1.3625466 0.0038734588 4.978564e-39
1.7209886 1.3652581 0.0027560371 4.978564e-39
2.2233686 1.3683299 0.0023643712 4.978564e-39
0.91262424 1.3760506 0.0048623066 4.978564e-39
1.5502876 1.3760654 0.0070296414 4.978564e-39
1.8673997 1.3737812 0.0025753081 4.978564e-39
1.9476016 1.3761737 0.0042975177 4.978564e-39
0.91882473 1.3819771 0.0085667605 4.978564e-39
0.95751357 1.3872446 0.003292043 4.978564e-39
1.34863 1.3850046 0.006187092 4.978564e-39
1.5168128 1.3825332 0.007309461 4.978564e-39
1.894382 1.3874825 0.004866614 4.978564e-39
1.4421926 1.3917054 0.0017866088 4.978564e-39
1.9635555 1.3944528 0.0008832009 4.978564e-39
2.0813484 1.3913069 0.0027747529 4.978564e-39
2.1105042 1.3975111 0.0023963945 4.978564e-39
0.98639631 1.4003249 0.0049762232 4.978564e-39
0.99751925 1.4019122 0.0025315385 4.978564e-39
1.1661403 1.4098215 0.0036036787 4.978564e-39
1.4599044 1.404162 0.0026546693 4.978564e-39
0.94958532 1.4133314 0.0020201632 4.978564e-39
0.99726927 1.4194255 0.0054106535 4.978564e-39
1.1540246 1.4126587 0.0054899342 4.978564e-39
1.8365812 1.4113163 0.0032729548 4.978564e-39
1.5631503 1.4217265 0.0070880167 4.978564e-39
1.5881243 1.4243165 0.0060096565 4.978564e-39
1.5900637 1.4294147 0.0033309157 4.978564e-39
1.952296 1.4202689 0.0048231892 4.978564e-39
1.9635514 1.4292521 0.0051471307 4.978564e-39
1.985025 1.4249203 0.0054939408 4.978564e-39
0.89456522 1.4355737 0.0053366134 4.978564e-39
1.2106179 1.4357827 0.0038287772 4.978564e-39
1.3688054 1.4392545 0.0059161033 4.978564e-39
1.4041032 1.4348369 0.0037704152 4.978564e-39
1.4117522 1.4356451 0.0063448125 4.978564e-39
1.4494816 1.432196 0.0080543282 4.978564e-39
1.6073608 1.4371781 0.0063750739 4.978564e-39
1.6895356 1.4338453 0.0058574905 4.978564e-39
1.7377126 1.4353698 0.0013416111 4.978564e-39
1.8617239 1.4370515 0.0057975422 4.978564e-39
1.9526047 1.4355861 0.0056118076 4.978564e-39
2.304646 1.430725 0.0012187798 4.978564e-39
0.98259974 1.4459757 0.0023420111 4.978564e-39
1.2500019 1.4440876 0.0038748365 4.978564e-39
1.5963732 1.4425334 0.0056606722 4.978564e-39
2.108809 1.4479733 0.00089456543 4.978564e-39
2.3368783 1.4471178 0.00011759529 4.978564e-39
0.85889471 1.4500579 0.00021093099 4.978564e-39
0.93580675 1.4508895 0.0030709011 4.978564e-39
1.0487187 1.4555945 0.0023682918 4.978564e-39
1.5018048 1.4516597 0.00040065363 4.978564e-39
1.6499705 1.4548301 0.0060459403 4.978564e-39
2.0621197 1.4550359 0.0046910089 4.978564e-39
0.96265101 1.4634832 0.0010894561 4.978564e-39
1.0041496 1.4683316 0.0051590567 4.978564e-39
1.6033455 1.4695008 0.0074669197 4.978564e-39
2.1644206 1.4641005 0.0036134725 4.978564e-39
2.347229 1.4639341 0.00084562576 4.978564e-39
0.91799659 1.4750221 0.0042836368 4.978564e-39
1.1695217 1.4721335 0.0052834228 4.978564e-39
1.1717664 1.4723394 0.0049641305 4.978564e-39
1.1854261 1.4771523 0.0034984224 4.978564e-39
1.2285006 1.4718356 0.0044555697 4.978564e-39
1.8480217 1.4772599 0.0045674299 4.978564e-39
0.88302678 1.4814432 0.0082436772 4.978564e-39
1.1358589 1.4830397 0.002048223 4.978564e-39
1.1826472 1.4801177 0.0092409384 4.978564e-39
1.4358717 1.4837731 0.00070442166 4.978564e-39
1.5600389 1.4800348 0.0013704401 4.978564e-39
1.6371447 1.4881316 0.0047314847 4.978564e-39
1.149429 1.4955434 0.0052760681 4.978564e-39
1.3077868 1.4926339 0.0041703116 4.978564e-39
1.4236484 1.4994609 0.0050920914 4.978564e-39
1.882133 1.4941044 0.0011525952 4.978564e-39
1.9997926 1.4945666 0.0026653078 4.978564e-39
1.012305 1.5034523 0.0038024245 4.978564e-39
1.2759765 1.5094216 0.00047510688 4.978564e-39
1.2838646 1.5063154 0.0067962771 4.978564e-39
1.8499432 1.5039552 0.0021432841 4.978564e-39
2.1755748 1.5009997 0.0037449179 4.978564e-39
1.1244407 1.5105205 0.0017669656 4.978564e-39
1.531307 1.5175841 0.0032607282 4.978564e-39
1.9335182 1.5172708 0.0018728025 4.978564e-39
2.1703744 1.5192853 0.0032529081 4.978564e-39
1.080619 1.5248911 0.0029816926 4.978564e-39
1.2242424 1.5207516 0.0084017273 4.978564e-39
1.7830172 1.5238919 0.00062291592 4.978564e-39
1.1325703 1.5305071 0.0014296027 4.978564e-39
1.6122724 1.5321072 0.0053004059 4.978564e-39
1.6599143 1.5312279 0.0058632493 4.978564e-39
1.6705508 1.5339905 0.0024963655 4.978564e-39
1.1925553 1.5459331 0.0083302539 4.978564e-39
1.2874378 1.5429758 0.0065038078 4.978564e-39
1.4403468 1.5453517 0.00028511835 4.978564e-39
1.5503851 1.5470494 0.0061989729 4.978564e-39
1.8496104 1.541411 0.0050561256 4.978564e-39
2.0071023 1.545156 0.0051115737 4.978564e-39
2.029084 1.5451136 0.0044067684 4.978564e-39
1.6467385 1.5501275 0.00011185023 4.978564e-39
1.6902077 1.5511123 0.00040106371 4.978564e-39
1.0278505 1.5671074 0.0062421742 4.978564e-39
1.1882356 1.5665741 0.00026644088 4.978564e-39
1.2205859 1.5689682 0.00063339685 4.978564e-39
1.1818153 1.5744058 0.0070116767 4.978564e-39
1.222705 1.5740129 0.002052604 4.978564e-39
1.4154288 1.5742722 0.0024666705 4.978564e-39
1.7845614 1.5760313 0.0012776649 4.978564e-39
1.84563 1.5795695 0.0033028265 4.978564e-39
1.760707 1.5824456 0.0027106048 4.978564e-39
1.0967084 1.5971602 0.0036650337 4.978564e-39
1.1305977 1.6060758 0.0031079296 4.978564e-39
1.9294511 1.6096338 0.0051322351 4.978564e-39
2.2775102 1.6065209 0.0022138259 4.978564e-39
1.5773178 1.617543 0.004713404 4.978564e-39
1.6370468 1.6121829 0.0014887912 4.978564e-39
1.8663932 1.615977 0.0056961589 4.978564e-39
2.0575762 1.6162893 0.002339154 4.978564e-39
1.212261 1.6212423 0.0063180821 4.978564e-39
1.2695352 1.62895 0.0057330625 4.978564e-39
1.6290437 1.6214225 0.0068529411 4.978564e-39
1.818238 1.6272891 0.0051767211 4.978564e-39
1.3820485 1.6331789 0.0015414435 4.978564e-39
1.4700329 1.632874 0.0046463599 4.978564e-39
1.7111675 1.63504 0.0021099043 4.978564e-39
2.1968055 1.6356729 0.0018977283 4.978564e-39
1.2670199 1.647822 0.0075055598 4.978564e-39
1.2965012 1.6481045 0.0069759656 4.978564e-39
2.0718277 1.6477056 0.0036241228 4.978564e-39
1.6056963 1.6574752 0.0068796338 4.978564e-39
1.7187915 1.6518813 0.0043907585 4.978564e-39
1.7240769 1.6569021 0.0050022714 4.978564e-39
2.0950353 1.6582395 0.0017680716 4.978564e-39
1.7525048 1.669288 0.0046063922 4.978564e-39
1.9600555 1.6633641 0.0030727903 4.978564e-39
2.0232768 1.6617044 0.0026425815 4.978564e-39
2.1433506 1.6684275 0.00033319043 4.978564e-39
1.5189695 1.671541 0.0037305821 4.978564e-39
1.9067556 1.6701726 0.0049683247 4.978564e-39
2.1192005 1.6745671 0.00031934422 4.978564e-39
1.4848145 1.6828789 0.0022002938 4.978564e-39
1.7349266 1.6870681 0.0058602458 4.978564e-39
2.2143364 1.6833093 0.0005312275 4.978564e-39
1.4213629 1.6967413 0.0020544166 4.978564e-39
1.5606579 1.6936023 0.0028427676 4.978564e-39
1.9515975 1.6950071 0.0044274684 4.978564e-39
1.9649647 1.6936032 0.0052475943 4.978564e-39
1.3308284 1.7041085 0.0052444711 4.978564e-39
1.4769123 1.7061691 0.0053587197 4.978564e-39
1.7135295 1.7172105 0.0019492734 4.978564e-39
2.2889564 1.719189 0.0011225273 4.978564e-39
1.7756059 1.7290398 0.0037512009 4.978564e-39
1.8219837 1.723996 0.0057206568 4.978564e-39
2.060266 1.7225748 0.00018318873 4.978564e-39
1.3611306 1.7327675 0.002994094 4.978564e-39
1.5465997 1.7314328 0.005539448 4.978564e-39
1.5593357 1.7386104 0.0022612121 4.978564e-39
1.6499482 1.7458342 0.0058288798 4.978564e-39
1.8504272 1.7426498 0.0035333112 4.978564e-39
2.1225052 1.7457753 0.0011893284 4.978564e-39
2.1721311 1.7471008 0.0031452843 4.978564e-39
1.6515937 1.7550046 0.0056754402 4.978564e-39
1.6706259 1.7557408 0.0030197108 4.978564e-39
1.7761309 1.7582307 0.0060236845 4.978564e-39
1.4048151 1.7663044 0.0024613007 4.978564e-39
2.0067277 1.7613424 0.0027300657 4.978564e-39
1.5891638 1.7781333 0.0046277158 4.978564e-39
1.6013772 1.7727127 0.0026729037 4.978564e-39
1.8526312 1.7765846 0.0053018318 4.978564e-39
2.0481591 1.7797624 0.0039579594 4.978564e-39
2.3010132 1.7744029 8.4682601e-05 4.978564e-39
1.5324695 1.7861084 0.0016097492 4.978564e-39
1.6269369 1.7801466 0.0018925212 4.978564e-39
1.7797018 1.7923144 0.0018273751 4.978564e-39
2.0028746 1.7901584 0.00057422044 4.978564e-39
2.2703485 1.7902184 0.00055484573 4.978564e-39
2.3008893 1.7978756 0.0010455975 4.978564e-39
1.5624026 1.8169694 0.0015632873 4.978564e-39
2.092849 1.8116965 0.0043689203 4.978564e-39
1.9589218 1.8273176 0.0030439824 4.978564e-39
1.496058 1.8332719 0.0044260505 4.978564e-39
1.7212315 1.8318844 0.0036946365 4.978564e-39
1.9838631 1.8348924 0.0045051561 4.978564e-39
1.818858 1.8403282 0.00014472623 4.978564e-39
1.4718367 1.8532138 0.0073174154 4.978564e-39
1.8135898 1.8500006 0.00016754468 4.978564e-39
1.7430174 1.8658117 0.0026359614 4.978564e-39
1.9492092 1.8608372 0.0011644226 4.978564e-39
1.6342651 1.8737051 0.0023127659 4.978564e-39
1.6605872 1.870016 0.0071280734 4.978564e-39
1.4702713 1.8817041 0.0033979025 4.978564e-39
1.6188977 1.8807263 0.0073626679 4.978564e-39
2.0270879 1.8817312 0.0019971088 4.978564e-39
2.1472552 1.8863965 0.0036101544 4.978564e-39
1.5151579 1.8997178 0.0076039373 4.978564e-39
1.6125387 1.8986344 0.0043779174 4.978564e-39
2.2325318 1.8958157 0.0015017351 4.978564e-39
1.8509612 1.9069679 0.0036263012 4.978564e-39
1.8863035 1.9091163 0.0024535023 4.978564e-39
2.2802768 1.9082226 0.0027633924 4.978564e-39
2.0110805 1.9186161 0.0037023772 4.978564e-39
2.2754757 1.9135315 0.00040266037 4.978564e-39
1.5968331 1.9285017 0.0028318446 4.978564e-39
1.8134238 1.9268589 0.00052393624 4.978564e-39
1.9753295 1.9369037 0.0014791236 4.978564e-39
2.1850102 1.9378213 0.0010595258 4.978564e-39
2.009944 1.9616452 0.0023520309 4.978564e-39
1.8332428 1.9980186 0.0019522291 4.978564e-39
1.7114176 2.0040755 0.00373515 4.978564e-39
1.7534076 2.0027425 0.0054528755 4.978564e-39
1.9745039 2.0101471 9.9861514e-05 4.978564e-39
2.0201828 2.023123 0.0029621706 4.978564e-39
1.7765616 2.0368562 0.0065110414 4.978564e-39
1.8723111 2.0464311 0.0040195435 4.978564e-39
2.4142678 2.0420179 0.0005380463 4.978564e-39
1.8228815 2.0528066 0.0051044179 4.978564e-39
1.9375494 2.05865 0.0065304926 4.978564e-39
1.9679967 2.0594089 0.0015258256 4.978564e-39
1.7822255 2.0753007 0.0020193604 4.978564e-39
1.9650791 2.082588 0.0038202719 4.978564e-39
1.852849 2.0958822 0.0046737711 4.978564e-39
1.9140286 2.1051137 0.0023951477 4.978564e-39
1.842993 2.1144185 0.002977741 4.978564e-39
2.2105911 2.1260209 0.00013888146 4.978564e-39
2.0161073 2.1386149 0.0031077461 4.978564e-39
1.9053888 2.151062 0.0023839222 4.978564e-39
2.1315825 2.1509726 0.0024269705 4.978564e-39
1.9783287 2.1619775 0.0046126419 4.978564e-39
2.0999439 2.1996076 0.0045237592 4.978564e-39
2.106755 2.2054265 0.0013910333 4.978564e-39
2.2453377 2.2221985 0.0001746028 4.978564e-39
2.0823197 2.2581632 0.0011644558 4.978564e-39
0.49878317 -0.21227568 0.010380566 5.5389699e-39
0.50543463 -0.21257804 0.010333836 5.5393286e-39
0.51494348 -0.21192448 0.010434919 5.5393286e-39
0.52479714 -0.21277478 0.010303453 5.53933e-39
0.53474498 -0.21228221 0.010379612 5.6315243e-39
0.54513639 -0.21243668 0.010355737 5.6315243e-39
0.55209827 -0.21212974 0.010403216 5.6315257e-39
0.49838915 -0.20506296 0.011496022 5.5389699e-39
0.50508153 -0.2050271 0.011501579 5.5393286e-39
0.5150429 -0.20484662 0.011529541 5.5393286e-39
0.52527928 -0.20525262 0.011466763 5.53933e-39
0.53464067 -0.20474909 0.011544627 5.6315243e-39
0.54493296 -0.20518699 0.011476952 5.6315243e-39
0.55164754 -0.20469891 0.011552453 5.6315257e-39
0.49786478 -0.1954634 0.012980625 5.5393286e-39
0.50496095 -0.19453196 0.013124723 5.5393286e-39
0.51501101 -0.1954872 0.012977011 5.5393286e-39
0.52454996 -0.19491677 0.013065254 5.6315243e-39
0.53489393 -0.19526957 0.01301071 5.6315243e-39
0.54523093 -0.19471017 0.013097227 5.6315257e-39
0.5510478 -0.1948096 0.013081849 5.6318844e-39
0.49742794 -0.18523489 0.014562501 5.5393286e-39
0.50478804 -0.18467964 0.014648432 5.5393286e-39
0.5150739 -0.1856219 0.014502719 5.53933e-39
0.52494514 -0.18467195 0.014649658 5.6315243e-39
0.53546989 -0.18562505 0.014502227 5.6315243e-39
0.5444203 -0.18459861 0.014661032 5.6315257e-39
0.55086982 -0.18533246 0.014579797 5.6315257e-39
0.49727023 -0.1741344 0.016076662 5.5393286e-39
0.50496048 -0.17514448 0.016123077 5.5393286e-39
0.51525486 -0.17497094 0.016149927 5.6311655e-39
0.52510566 -0.17502777 0.016141156 5.6315243e-39
0.53507644 -0.17552376 0.016064489 5.6315257e-39
0.54492551 -0.17435788 0.016244793 5.7237199e-39
0.55007601 -0.17878567 0.015560031 5.7237199e-39
0.49774337 -0.16470931 0.016431382 5.5393286e-39
0.50506103 -0.16537833 0.017549843 5.6311641e-39
0.514907 -0.16478232 0.01772565 5.6315243e-39
0.52516091 -0.1651385 0.017670564 5.6315243e-39
0.53490758 -0.16484083 0.017716633 5.6315257e-39
0.54512691 -0.16510791 0.017675353 5.7237199e-39
0.49774346 -0.15537386 0.016431371 5.5393286e-39
0.50552046 -0.15491793 0.018424939 5.5393286e-39
0.51469499 -0.1550286 0.019234085 5.6315243e-39
0.52460086 -0.15546811 0.019166134 5.6315243e-39
0.5346899 -0.1548219 0.019266101 5.7233612e-39
0.54516721 -0.15512316 0.01921954 5.7237199e-39
0.49774346 -0.14487144 0.016431388 5.5393286e-39
0.50553441 -0.14479285 0.018471826 5.5393286e-39
0.4977434 -0.13436906 0.016431382 5.5393286e-39
0.50581032 -0.13491306 0.018544054 5.5393286e-39
0.49774337 -0.12503357 0.016431382 5.5389699e-39
0.50581026 -0.1255451 0.018544054 5.5393286e-39
0.49774346 -0.11569812 0.016431371 5.5389685e-39
0.50581026 -0.11500618 0.018544054 5.5393286e-39
0.49774346 -0.10519572 0.016431371 5.5389685e-39
0.50581032 -0.10446723 0.018544054 5.5393286e-39
0.49774346 -0.094693333 0.016431371 5.447133e-39
0.50581032 -0.0950993 0.018544054 5.5393286e-39
0.49774346 -0.085357867 0.016431382 5.447133e-39
0.50600302 -0.085460991 0.018594559 5.5393286e-39
0.49774343 -0.074855469 0.01643138 5.447133e-39
0.50564152 -0.074989863 0.018499861 5.5389685e-39
0.4977434 -0.064353071 0.016431382 5.447133e-39
0.50581026 -0.064653493 0.018544054 5.5389685e-39
0.51519471 -0.065325364 0.015528126 5.8155554e-39
0.49774346 -0.055017602 0.016431382 5.447133e-39
0.50581026 -0.055285543 0.018544054 5.5389685e-39
0.49774352 -0.045682136 0.016431371 5.447133e-39
0.50597864 -0.044946264 0.018588165 5.5389685e-39
0.49774349 -0.035179738 0.01643138 5.447133e-39
0.5056178 -0.034481339 0.018493641 5.447133e-39
0.49774346 -0.024677342 0.016431371 5.4471316e-39
0.50581026 -0.024839725 0.018544054 5.447133e-39
0.49774346 -0.015341875 0.016431371 5.4467729e-39
0.50581032 -0.015471784 0.018544054 5.447133e-39
0.49774346 -0.0048394781 0.016431371 5.4467729e-39
0.5058102 -0.0049328511 0.018544054 5.447133e-39
0.49774352 0.0056629181 0.016431371 5.4467729e-39
0.5058102 0.0056060837 0.018544054 5.447133e-39
0.4977434 0.014998383 0.016431371 5.4467729e-39
0.50581026 0.014974025 0.018544054 5.447133e-39
0.49774346 0.024333848 0.016431371 5.4467729e-39
0.5058102 0.024341967 0.018544054 5.4471316e-39
0.49774349 0.034836248 0.01643138 5.3549374e-39
0.5058102 0.034880895 0.018544054 5.4467729e-39
0.5125491 0.03843151 0.019212842 5.6311641e-39
0.49774346 0.045338642 0.016431371 5.3549374e-39
0.50581026 0.045419838 0.018544054 5.4467729e-39
0.49774346 0.054674108 0.016431391 5.3549374e-39
0.50581026 0.054787777 0.018544054 5.4467729e-39
0.49774346 0.065176502 0.016431388 5.3549374e-39
0.50553441 0.064682305 0.018471826 5.4467729e-39
0.49774346 0.0756789 0.016431391 5.354936e-39
0.50607407 0.075107396 0.018613141 5.4467729e-39
0.49774346 0.085014366 0.016431382 5.354936e-39
0.50581026 0.085233584 0.018544054 5.4467729e-39
0.49774346 0.094349824 0.016431371 5.3545772e-39
0.50581026 0.094601534 0.018544054 5.3549374e-39
0.49774349 0.10485222 0.016431371 5.3545772e-39
0.50581032 0.10514046 0.018544054 5.3549374e-39
0.4977434 0.11535462 0.016431382 5.3545772e-39
0.50581026 0.1156794 0.018544054 5.3549374e-39
0.49774346 0.12469009 0.016431382 5.3545772e-39
0.50555629 0.12513283 0.018363027 5.354936e-39
0.4977434 0.13519248 0.01643138 5.3545772e-39
0.50581014 0.13441527 0.018544054 5.3545772e-39
0.49774346 0.14569488 0.016431382 5.3545772e-39
0.5058102 0.14495419 0.018544054 5.2623816e-39
0.54335564 0.14589338 0.014314672 5.0783491e-39
0.49774346 0.15503037 0.016431382 5.2623816e-39
0.50537831 0.1552116 0.018376496 5.0779903e-39
0.51503456 0.15532312 0.019188249 5.0779903e-39
0.5245446 0.15449505 0.019316375 5.0779903e-39
0.53482568 0.15526988 0.019196611 5.0779903e-39
0.54540688 0.15571098 0.01912849 5.0783491e-39
0.4977434 0.16436581 0.016431371 5.170186e-39
0.50503874 0.16486958 0.017611645 5.0779889e-39
0.51526344 0.16541798 0.01762704 5.0779889e-39
0.52492154 0.16445147 0.017776581 5.0779903e-39
0.53486943 0.16463496 0.017748257 5.0779903e-39
0.54518104 0.16600521 0.017536402 5.0783491e-39
0.49732938 0.17427951 0.016050229 4.9857947e-39
0.50468719 0.17487817 0.016163932 4.9861534e-39
0.51480168 0.17499265 0.016146287 5.0779889e-39
0.52493763 0.17523324 0.016109126 5.0779903e-39
0.5348168 0.17454416 0.016215749 5.0779903e-39
0.5449779 0.17522854 0.016109981 5.0783491e-39
0.55012035 0.17951554 0.015446901 5.0783505e-39
0.49732047 0.18549781 0.01452148 4.9857947e-39
0.50490475 0.18480819 0.01462822 4.9857947e-39
0.51502627 0.18477909 0.014632761 4.9861534e-39
0.52545375 0.18550612 0.014606033 5.0779903e-39
0.5353893 0.18425664 0.014713682 5.0779903e-39
0.54465514 0.18510656 0.014582299 5.0779903e-39
0.55049187 0.18564196 0.014499575 5.0783505e-39
0.49784106 0.19502704 0.013047785 4.9857947e-39
0.50521761 0.19494782 0.013060068 4.9857947e-39
0.51471519 0.19488449 0.013069937 4.9861534e-39
0.52463901 0.195297 0.013006166 4.9861548e-39
0.5347653 0.19486327 0.013073309 5.0779903e-39
0.54524213 0.19489244 0.013068862 5.0779903e-39
0.55108738 0.19546059 0.012980998 5.0783491e-39
0.49836275 0.20457685 0.011570856 4.9857947e-39
0.50503081 0.20527978 0.011462197 4.9857947e-39
0.51494384 0.20490628 0.011520001 4.9861534e-39
0.5251981 0.20499322 0.011506602 4.9861548e-39
0.53511429 0.20519356 0.011475694 5.0779903e-39
0.54519969 0.20490545 0.011520307 5.0779903e-39
0.55168414 0.20530108 0.011459202 5.0779903e-39
0.49875468 0.2117521 0.010461211 4.9857947e-39
0.50542974 0.21248329 0.010348171 4.9857947e-39
0.5154689 0.21237987 0.010364149 4.9857947e-39
0.52561814 0.21227866 0.010379866 4.9861548e-39
0.53429776 0.21304373 0.010261604 4.9861548e-39
0.54510677 0.21194485 0.010431623 5.0779903e-39
0.55213261 0.21269515 0.010315597 5.0779903e-39
0.5150941 -0.14498284 0.020544328 5.6315243e-39
0.52545893 -0.14540902 0.02072181 5.6315243e-39
0.53532958 -0.14448941 0.020864055 5.7237199e-39
0.54457909 -0.14536312 0.020728961 5.7237199e-39
0.51495039 -0.13552982 0.020933136 5.6315243e-39
0.52444959 -0.13486625 0.022313768 5.7233612e-39
0.53475595 -0.13480274 0.022362143 5.7237199e-39
0.54415381 -0.13582978 0.022403922 5.7237199e-39
0.51494879 -0.124949 0.020937413 5.6315243e-39
0.52401429 -0.12463049 0.023173008 5.7233598e-39
0.53480649 -0.12492171 0.023890277 5.7237199e-39
0.54409677 -0.12588385 0.023741508 5.7237213e-39
0.51494873 -0.11436868 0.020937413 5.6315243e-39
0.52416217 -0.1149065 0.02335031 5.7233598e-39
0.53480411 -0.11559433 0.025220966 5.7237199e-39
0.54371917 -0.11473271 0.025466075 5.8159155e-39
0.51494879 -0.10496394 0.020937413 5.6315243e-39
0.52416217 -0.10546468 0.02335031 5.6315243e-39
0.53478748 -0.10527506 0.026036324 5.7237199e-39
0.54324847 -0.1042057 0.027094116 5.8159155e-39
0.51494879 -0.095559187 0.020937413 5.6311655e-39
0.52433324 -0.095047511 0.023395127 5.6315243e-39
0.53420055 -0.094695613 0.025979312 5.7237199e-39
0.54284948 -0.094592176 0.028114647 5.8159155e-39
0.51494879 -0.084978871 0.020937413 5.6311641e-39
0.52396667 -0.084492229 0.023299092 5.6315243e-39
0.53448313 -0.084688045 0.026053334 5.7237199e-39
0.54280329 -0.085064895 0.028232217 5.8159155e-39
0.51494879 -0.074398547 0.020937413 5.6311641e-39
0.52416211 -0.074778751 0.02335031 5.6315243e-39
0.53448313 -0.075204663 0.026053334 5.7237199e-39
0.54280335 -0.075548016 0.028232217 5.8159155e-39
0.51494879 -0.064993806 0.020937413 5.5393286e-39
0.52416217 -0.06533692 0.02335031 5.6315243e-39
0.53448325 -0.065721281 0.026053334 5.7237199e-39
0.54280341 -0.064841531 0.028232217 5.8155568e-39
0.51494884 -0.055589069 0.020937413 5.5393286e-39
0.52444249 -0.055367231 0.023423731 5.6315243e-39
0.53448313 -0.055052489 0.026053334 5.7237199e-39
0.54280329 -0.054135043 0.028232217 5.8155554e-39
0.51494879 -0.045008741 0.020937413 5.5393286e-39
0.52389401 -0.044854295 0.023280082 5.6315243e-39
0.53448313 -0.044383686 0.026053334 5.7233598e-39
0.54280335 -0.044618163 0.028232217 5.8155554e-39
0.51494879 -0.034428425 0.020937413 5.5393286e-39
0.52416211 -0.034650981 0.02335031 5.6315243e-39
0.53457868 -0.035140287 0.025901254 5.6315243e-39
0.54280335 -0.035101287 0.028232217 5.7237199e-39
0.51494879 -0.025023691 0.020937413 5.5393286e-39
0.52416217 -0.025209153 0.02335031 5.6311641e-39
0.53448313 -0.025416922 0.026053334 5.7233598e-39
0.54280329 -0.025584407 0.028232217 5.7237199e-39
0.51494879 -0.015618954 0.020937413 5.5393286e-39
0.52416217 -0.015767327 0.02335031 5.6311641e-39
0.53475356 -0.015164113 0.026124135 5.7233598e-39
0.54280335 -0.014877917 0.028232217 5.7237199e-39
0.51494873 -0.0050386307 0.020937413 5.5393286e-39
0.52416217 -0.0051452722 0.02335031 5.6311641e-39
0.53420049 -0.0046143048 0.025979312 5.6315243e-39
0.54280341 -0.0041714339 0.028232217 5.7237199e-39
0.51494879 0.0055416953 0.020937413 5.5393272e-39
0.52416217 0.0054767835 0.02335031 5.6311641e-39
0.53448325 0.005404064 0.026053334 5.6315243e-39
0.54280329 0.0053454433 0.028232217 5.7237199e-39
0.50150692 0.018659614 0.022014515 5.447133e-39
0.51494879 0.014946431 0.020937413 5.5389685e-39
0.52416217 0.014918609 0.02335031 5.5393286e-39
0.53448313 0.014887445 0.026053334 5.6315243e-39
0.54280335 0.014862321 0.028232217 5.7237199e-39
