# .PCD v0.7 - Point Cloud Data file format
VERSION 0.7
FIELDS x y z rgb
SIZE 4 4 4 4
TYPE F F F F
COUNT 1 1 1 1
WIDTH 1001
HEIGHT 1
VIEWPOINT 0 0 0 1 0 0 0
POINTS 1001
DATA ascii
1.7062305 1.4554687 -8.3446503e-06 4.978564e-39
1.7150093 1.454927 -7.5101852e-06 4.978564e-39
1.7244816 1.4554837 -8.046627e-06 4.978564e-39
1.7340057 1.4540435 -7.2717667e-06 4.978564e-39
1.7435994 1.4546016 -8.2850456e-06 4.978564e-39
1.7564805 1.4546784 -8.046627e-06 4.978564e-39
1.76621 1.4552422 -7.5101852e-06 4.978564e-39
1.7753546 1.4546911 -7.7962877e-06 4.978564e-39
1.7858666 1.4543468 -8.4638596e-06 4.978564e-39
1.7957939 1.4549145 -8.3446503e-06 4.978564e-39
1.8057787 1.4554869 -8.6426735e-06 4.978564e-39
1.8165071 1.4551414 -7.5340272e-06 4.978564e-39
1.8259529 1.4545811 -9.2983246e-06 4.978564e-39
1.8361408 1.4551555 -7.8678131e-06 4.978564e-39
1.8463917 1.4557372 -8.9406967e-06 4.978564e-39
1.8532661 1.4547409 -9.894371e-06 4.978564e-39
1.8636355 1.4553212 -8.8214874e-06 4.978564e-39
1.8740667 1.4538137 -8.225441e-06 4.978564e-39
1.8838737 1.4553382 -8.5830688e-06 4.978564e-39
1.8951486 1.4549835 -8.4638596e-06 4.978564e-39
1.9065132 1.4546281 -9.4175339e-06 4.978564e-39
1.9165143 1.4561682 -8.1062317e-06 4.978564e-39
1.923701 1.4551497 -8.4638596e-06 4.978564e-39
1.9352709 1.4547911 -8.5592274e-06 4.978564e-39
1.9454571 1.4563477 -9.2983246e-06 4.978564e-39
1.9527723 1.4553182 -7.6293945e-06 4.978564e-39
1.9645557 1.454958 -8.8691713e-06 4.978564e-39
1.9749268 1.4543675 -8.225441e-06 4.978564e-39
1.9861221 1.4549701 -7.8678131e-06 4.978564e-39
1.9973871 1.4555783 -7.9870224e-06 4.978564e-39
2.0049455 1.4545339 -9.6559525e-06 4.978564e-39
2.0125346 1.4556668 -8.225441e-06 4.978564e-39
2.0239911 1.4540875 -7.6293945e-06 4.978564e-39
2.0355222 1.4547014 -9.2585879e-06 4.978564e-39
2.0432544 1.4558461 -8.4638596e-06 4.978564e-39
2.0549288 1.4542539 -9.2983246e-06 4.978564e-39
2.0666735 1.4548713 -8.1062317e-06 4.978564e-39
2.0745554 1.4560292 -9.1791153e-06 4.978564e-39
2.0824697 1.454957 -7.1525574e-06 4.978564e-39
2.095221 1.4545797 -7.2717667e-06 4.978564e-39
2.1064525 1.4562151 -9.5367432e-06 4.978564e-39
2.1145225 1.4551358 -9.894371e-06 4.978564e-39
2.1226294 1.4540503 -9.1791153e-06 4.978564e-39
2.1340506 1.4556961 -8.8453289e-06 4.978564e-39
2.1471891 1.455315 -9.5367432e-06 4.978564e-39
2.1554539 1.4542195 -8.9406967e-06 4.978564e-39
2.1637597 1.4554054 -9.059906e-06 4.978564e-39
0.84604549 1.4622569 -6.0319899e-06 4.978564e-39
0.85522878 1.4647484 -7.1959062e-06 4.978564e-39
0.86487138 1.4651151 -6.9260595e-06 4.978564e-39
0.87392187 1.4649493 -5.5074693e-06 4.978564e-39
0.88373655 1.4653233 -8.377162e-06 4.978564e-39
0.89423978 1.4647856 -5.1379202e-06 4.978564e-39
0.90354329 1.464619 -6.5565109e-06 4.978564e-39
0.91362989 1.464994 -6.6323714e-06 4.978564e-39
0.92439806 1.4649348 -6.4698133e-06 4.978564e-39
0.93467981 1.4653144 -6.246567e-06 4.978564e-39
0.94433439 1.4651458 -6.5565109e-06 4.978564e-39
0.95512199 1.4650644 -7.3790552e-06 4.978564e-39
0.96601486 1.4649786 -6.0439111e-06 4.978564e-39
0.97594655 1.4648068 -6.8902968e-06 4.978564e-39
0.98521972 1.4646925 -0.0010653739 4.978564e-39
0.9942627 1.4648085 -5.364418e-06 4.978564e-39
1.0048144 1.4651711 -8.1181524e-06 4.978564e-39
1.0161979 1.4650834 -4.7802923e-06 4.978564e-39
1.0254623 1.4648169 -5.9604645e-06 4.978564e-39
1.0344316 1.4655421 -6.6280363e-06 4.978564e-39
1.0464971 1.4644617 -8.1539156e-06 4.978564e-39
1.0556246 1.465189 -6.4969063e-06 4.978564e-39
1.0652163 1.4649202 -7.2479247e-06 4.978564e-39
1.0748808 1.4646444 -5.543232e-06 4.978564e-39
1.0842417 1.4653854 -6.8545341e-06 4.978564e-39
1.0944614 1.4640948 -8.3446503e-06 4.978564e-39
1.1043761 1.4653947 -7.8280764e-06 4.978564e-39
1.1143681 1.46512 -6.5565109e-06 4.978564e-39
1.1244515 1.4648409 -7.1128211e-06 4.978564e-39
1.1343216 1.4653002 -5.6198664e-06 4.978564e-39
1.1452812 1.4648457 -6.1511992e-06 4.978564e-39
1.1552079 1.4656094 -7.9274178e-06 4.978564e-39
1.1656389 1.4647883 -6.5962472e-06 4.978564e-39
1.176156 1.4650459 -7.8082085e-06 4.978564e-39
1.1846374 1.4651464 -8.1062317e-06 4.978564e-39
1.1953229 1.464856 -5.7220459e-06 4.978564e-39
1.2057893 1.4653323 -7.3228562e-06 4.978564e-39
1.2147892 1.4646683 -7.4505806e-06 4.978564e-39
1.2235413 1.4647697 -8.3446503e-06 4.978564e-39
1.2345695 1.4644741 -6.7949295e-06 4.978564e-39
1.2456912 1.4658556 -7.5101852e-06 4.978564e-39
1.2546617 1.4642788 -7.3313713e-06 4.978564e-39
1.2636973 1.4660659 -7.9274178e-06 4.978564e-39
1.2745134 1.4646037 -7.7784061e-06 4.978564e-39
1.2865689 1.4654797 -6.6161156e-06 4.978564e-39
1.2958342 1.4638764 -6.7949295e-06 4.978564e-39
1.3051676 1.4656912 -7.6889992e-06 4.978564e-39
1.3145692 1.4640778 -8.7022781e-06 4.978564e-39
1.3240376 1.4659046 -7.470449e-06 4.978564e-39
1.3335775 1.4642798 -8.2850456e-06 4.978564e-39
1.343667 1.4653428 -6.0558318e-06 4.978564e-39
1.3528681 1.4644856 -8.7022781e-06 4.978564e-39
1.3656837 1.465387 -5.5730343e-06 4.978564e-39
1.3768917 1.4646542 -8.7022781e-06 4.978564e-39
1.3873228 1.465737 -8.5234642e-06 4.978564e-39
1.3973321 1.4640694 -6.6757202e-06 4.978564e-39
1.4074197 1.4659568 -7.4505806e-06 4.978564e-39
1.4150332 1.4647007 -8.225441e-06 4.978564e-39
1.4221828 1.464239 -8.8453289e-06 4.978564e-39
1.4329716 1.4653358 -5.7617822e-06 4.978564e-39
1.442812 1.4644499 -7.5817106e-06 4.978564e-39
1.4537722 1.465561 -9.4175339e-06 4.978564e-39
1.4637618 1.4646661 -8.225441e-06 4.978564e-39
1.4748893 1.465784 -7.3313713e-06 4.978564e-39
1.4850358 1.4648837 -7.2002413e-06 4.978564e-39
1.496879 1.4651901 -7.367134e-06 4.978564e-39
1.5071893 1.4642788 -7.3115029e-06 4.978564e-39
1.5153812 1.4648252 -7.6889992e-06 4.978564e-39
1.5244476 1.4658967 -0.00054320565 4.978564e-39
1.5341364 1.464455 -7.0095061e-06 4.978564e-39
1.5458468 1.4656023 -7.5101852e-06 4.978564e-39
1.5565265 1.4646791 -8.1777571e-06 4.978564e-39
1.5655782 1.4643898 -6.9141388e-06 4.978564e-39
1.5741247 1.4649476 -7.6889992e-06 4.978564e-39
1.5855277 1.4652172 -5.1853363e-05 4.978564e-39
1.5942596 1.4656286 -1.0371208e-05 4.978564e-39
1.6023935 1.4651353 -7.9870224e-06 4.978564e-39
1.615268 1.4654546 -6.9379807e-06 4.978564e-39
1.6264821 1.4645061 -7.9075498e-06 4.978564e-39
1.6341915 1.4658422 -0.0024491583 4.978564e-39
1.6443647 1.4656482 -7.212162e-06 4.978564e-39
1.6558059 1.4646925 -7.5578691e-06 4.978564e-39
1.6655073 1.4643948 -7.8678131e-06 4.978564e-39
1.674666 1.4649707 -7.2717667e-06 4.978564e-39
1.6838775 1.4655526 -7.9870224e-06 4.978564e-39
1.693772 1.4652554 -7.7962877e-06 4.978564e-39
1.7049786 1.4651651 -7.2717667e-06 4.978564e-39
1.7150095 1.464864 -7.5101852e-06 4.978564e-39
1.7244822 1.4654528 -8.5234642e-06 4.978564e-39
1.7340056 1.464044 -7.2717667e-06 4.978564e-39
1.7435994 1.4646337 -8.2850456e-06 4.978564e-39
1.7564803 1.4647536 -8.046627e-06 4.978564e-39
1.7662098 1.4653497 -7.5101852e-06 4.978564e-39
1.7766651 1.465044 -7.9393385e-06 4.978564e-39
1.7858666 1.4645196 -8.4638596e-06 4.978564e-39
1.7957928 1.4651196 -7.6889992e-06 4.978564e-39
1.8057796 1.4657269 -9.2983246e-06 4.978564e-39
1.8151634 1.4651992 -8.3684918e-06 4.978564e-39
1.8259528 1.4648875 -9.2983246e-06 4.978564e-39
1.8368223 1.4645727 -8.1300732e-06 4.978564e-39
1.8463881 1.4661089 -6.3180923e-06 4.978564e-39
1.8532661 1.4651381 -9.894371e-06 4.978564e-39
1.8643287 1.4648215 -8.7261196e-06 4.978564e-39
1.8740667 1.4642801 -8.225441e-06 4.978564e-39
1.8845763 1.4648975 -8.4638596e-06 4.978564e-39
1.8951486 1.4655203 -8.4638596e-06 4.978564e-39
1.9050884 1.464978 -9.059906e-06 4.978564e-39
1.9165143 1.4646544 -8.1062317e-06 4.978564e-39
1.9237019 1.4636556 -9.059906e-06 4.978564e-39
1.9338211 1.465235 -8.8453289e-06 4.978564e-39
1.9454553 1.4649098 -8.1062317e-06 4.978564e-39
1.9527723 1.463901 -7.6293945e-06 4.978564e-39
1.9630791 1.4654974 -9.1075899e-06 4.978564e-39
1.9749268 1.4651697 -8.225441e-06 4.978564e-39
1.9868711 1.4648418 -7.9870224e-06 4.978564e-39
1.9973845 1.4664536 -6.3180923e-06 4.978564e-39
2.0049455 1.465436 -9.6559525e-06 4.978564e-39
2.0125346 1.4644086 -8.225441e-06 4.978564e-39
2.0239909 1.465053 -7.6293945e-06 4.978564e-39
2.0341456 1.4640193 -0.0013267776 4.978564e-39
2.0450413 1.465506 -0.0021186203 4.978564e-39
2.0557086 1.4643335 -8.7738035e-06 4.978564e-39
2.0666735 1.4659789 -8.1062317e-06 4.978564e-39
2.0745554 1.464936 -9.1791153e-06 4.978564e-39
2.0824697 1.4638851 -7.1525574e-06 4.978564e-39
2.0936227 1.4655449 -7.5101852e-06 4.978564e-39
2.1064525 1.4652071 -9.5367432e-06 4.978564e-39
2.1145225 1.4641492 -9.894371e-06 4.978564e-39
2.1226294 1.4653441 -9.1791153e-06 4.978564e-39
2.1348696 1.4660139 -9.0003014e-06 4.978564e-39
2.1471891 1.4644154 -9.5367432e-06 4.978564e-39
2.1554539 1.463342 -8.9406967e-06 4.978564e-39
2.1637597 1.4668362 -9.059906e-06 4.978564e-39
2.1721067 1.4657648 -9.894371e-06 4.978564e-39
0.85812974 1.4716144 -7.2717667e-06 4.978564e-39
0.86495107 1.4737704 -6.2137842e-06 4.978564e-39
0.8743096 1.4746879 -0.00067251484 4.978564e-39
0.88436282 1.4754192 -8.8095667e-06 4.978564e-39
0.89360863 1.4748169 -6.0905109e-06 4.978564e-39
0.90418035 1.4748073 -6.7840924e-06 4.978564e-39
0.91427338 1.4752294 -6.5565109e-06 4.978564e-39
0.9237498 1.4751058 -7.3313713e-06 4.978564e-39
0.93433583 1.4750706 -5.7458878e-06 4.978564e-39
0.94502747 1.4750366 -6.7949295e-06 4.978564e-39
0.95477283 1.4749101 -7.2717667e-06 4.978564e-39
0.96566135 1.474874 -6.1035157e-06 4.978564e-39
0.976659 1.474838 -6.5922736e-06 4.978564e-39
0.98524553 1.4755856 -7.4505806e-06 4.978564e-39
0.99459153 1.4748887 -5.3102322e-06 4.978564e-39
1.0051799 1.4747946 -8.1062317e-06 4.978564e-39
1.0158293 1.4751993 -4.8756601e-06 4.978564e-39
1.0257281 1.4748114 -6.1137334e-06 4.978564e-39
1.0348066 1.475291 -6.7154565e-06 4.978564e-39
1.0461179 1.4747133 -8.3923342e-06 4.978564e-39
1.0556247 1.4744798 -6.5366426e-06 4.978564e-39
1.0648315 1.4752525 -6.9260595e-06 4.978564e-39
1.075158 1.4748538 -5.4155075e-06 4.978564e-39
1.0846334 1.4753454 -7.3512397e-06 4.978564e-39
1.0947434 1.4743893 -8.225441e-06 4.978564e-39
1.1043761 1.4748805 -7.8280764e-06 4.978564e-39
1.1140821 1.4753784 -7.6634542e-06 4.978564e-39
1.1244515 1.4744067 -7.1128211e-06 4.978564e-39
1.1346135 1.4757673 -5.8412552e-06 4.978564e-39
1.1448693 1.4749982 -6.1591468e-06 4.978564e-39
1.1552079 1.4752979 -7.9274178e-06 4.978564e-39
1.1656387 1.4750593 -6.7591668e-06 4.978564e-39
1.1761559 1.4748181 -7.8082085e-06 4.978564e-39
1.1846374 1.4749527 -8.1062317e-06 4.978564e-39
1.1953228 1.474705 -5.7220459e-06 4.978564e-39
1.2060987 1.4761105 -7.4505806e-06 4.978564e-39
1.214789 1.474595 -7.4505806e-06 4.978564e-39
1.2235402 1.4747301 -7.2320304e-06 4.978564e-39
1.2345695 1.4744797 -6.7949295e-06 4.978564e-39
1.2456912 1.4759058 -7.5101852e-06 4.978564e-39
1.2546617 1.4743648 -7.3313713e-06 4.978564e-39
1.2636973 1.4761877 -7.9274178e-06 4.978564e-39
1.2750857 1.4742471 -7.9472857e-06 4.978564e-39
1.2865689 1.4756929 -6.6161156e-06 4.978564e-39
1.2958342 1.4741267 -6.7949295e-06 4.978564e-39
1.3051676 1.4759789 -7.6889992e-06 4.978564e-39
1.3145692 1.4744029 -8.7022781e-06 4.978564e-39
1.324512 1.4754972 -6.6757202e-06 4.978564e-39
1.3335775 1.4746809 -8.2850456e-06 4.978564e-39
1.3431865 1.4748225 -7.6293945e-06 4.978564e-39
1.3528682 1.4749638 -8.7022781e-06 4.978564e-39
1.3650712 1.475287 -5.5233636e-06 4.978564e-39
1.3773866 1.4744415 -8.5830688e-06 4.978564e-39
1.3878218 1.4755653 -8.9406967e-06 4.978564e-39
1.3973321 1.4747251 -6.6757202e-06 4.978564e-39
1.407104 1.4753958 -0.00042589646 4.978564e-39
1.4150332 1.4754273 -8.225441e-06 4.978564e-39
1.422695 1.4741937 -8.8214874e-06 4.978564e-39
1.4334873 1.4753319 -5.364418e-06 4.978564e-39
1.4433316 1.4744806 -7.212162e-06 4.978564e-39
1.4542962 1.4756346 -9.4175339e-06 4.978564e-39
1.4642903 1.474775 -8.5830688e-06 4.978564e-39
1.4754206 1.4759346 -6.5565109e-06 4.978564e-39
1.485572 1.475071 -7.1525574e-06 4.978564e-39
1.4957975 1.4742013 -6.6280363e-06 4.978564e-39
1.5071883 1.4753723 -6.3180923e-06 4.978564e-39
1.5153813 1.4740978 -7.7486038e-06 4.978564e-39
1.524179 1.4757063 -8.9406967e-06 4.978564e-39
1.5346922 1.4748238 -7.1525574e-06 4.978564e-39
1.5458477 1.4749771 -8.225441e-06 4.978564e-39
1.5570911 1.4751307 -8.2850456e-06 4.978564e-39
1.5655781 1.4738296 -6.9141388e-06 4.978564e-39
1.5746958 1.4754658 -7.5817106e-06 4.978564e-39
1.5855955 1.4745684 -7.7486038e-06 4.978564e-39
1.5942596 1.4751637 -1.0371208e-05 4.978564e-39
1.6035588 1.4749041 -7.5101852e-06 4.978564e-39
1.6134963 1.4745463 -0.00071432692 4.978564e-39
1.6270754 1.4752189 -8.5353849e-06 4.978564e-39
1.6353925 1.4747478 -7.2717667e-06 4.978564e-39
1.6443651 1.4753506 -7.5399876e-06 4.978564e-39
1.6564106 1.475511 -7.5101852e-06 4.978564e-39
1.6655073 1.4741672 -7.8678131e-06 4.978564e-39
1.6746662 1.4747735 -7.2717667e-06 4.978564e-39
1.6838775 1.475386 -7.9870224e-06 4.978564e-39
1.6925319 1.4749086 -7.9393385e-06 4.978564e-39
1.7062292 1.4752833 -7.2717667e-06 4.978564e-39
1.7150093 1.4748011 -7.5101852e-06 4.978564e-39
1.7244824 1.4754217 -8.7618828e-06 4.978564e-39
1.7340072 1.4740455 -8.5830688e-06 4.978564e-39
1.7435995 1.4746661 -8.4042549e-06 4.978564e-39
1.7564805 1.4748287 -8.046627e-06 4.978564e-39
1.76621 1.4754572 -7.5101852e-06 4.978564e-39
1.7753546 1.4749668 -7.7962877e-06 4.978564e-39
1.7858666 1.4746926 -8.4638596e-06 4.978564e-39
1.7957929 1.4753255 -7.6889992e-06 4.978564e-39
1.8066196 1.475053 -0.0013410141 4.978564e-39
1.8158357 1.4745524 -8.3446503e-06 4.978564e-39
1.8259529 1.4751939 -9.2983246e-06 4.978564e-39
1.8354601 1.4746919 -8.3923342e-06 4.978564e-39
1.8463891 1.4744091 -6.9141388e-06 4.978564e-39
1.8532649 1.4755344 -9.0201693e-06 4.978564e-39
1.8629423 1.4750299 -8.9168552e-06 4.978564e-39
1.8740667 1.4747467 -8.225441e-06 4.978564e-39
1.8852789 1.4744632 -8.3446503e-06 4.978564e-39
1.8951486 1.4760568 -8.4638596e-06 4.978564e-39
1.9058008 1.474604 -9.2387199e-06 4.978564e-39
1.9165143 1.4752622 -8.1062317e-06 4.978564e-39
1.9237019 1.4742874 -9.059906e-06 4.978564e-39
1.9345467 1.4749484 -9.1791153e-06 4.978564e-39
1.9454552 1.4756137 -8.1062317e-06 4.978564e-39
1.9527735 1.4746304 -8.5035963e-06 4.978564e-39
1.9638174 1.4752989 -9.0003014e-06 4.978564e-39
1.9749268 1.4738114 -8.225441e-06 4.978564e-39
1.9853733 1.4754488 -7.7486038e-06 4.978564e-39
1.9973845 1.4751551 -6.3180923e-06 4.978564e-39
2.0049455 1.4741576 -9.6559525e-06 4.978564e-39
2.0125346 1.4753361 -8.225441e-06 4.978564e-39
2.0239911 1.4760184 -7.6293945e-06 4.978564e-39
2.0355227 1.4745088 -9.6559525e-06 4.978564e-39
2.0432544 1.4734933 -8.4638596e-06 4.978564e-39
2.0541465 1.4751642 -8.1539156e-06 4.978564e-39
2.0666773 1.4748676 -1.0728836e-05 4.978564e-39
2.0745554 1.4738431 -9.1791153e-06 4.978564e-39
2.0824709 1.475046 -7.9472857e-06 4.978564e-39
2.0944219 1.4757421 -7.390976e-06 4.978564e-39
2.1064525 1.4741991 -9.5367432e-06 4.978564e-39
2.1145213 1.4754152 -9.0996427e-06 4.978564e-39
2.1226294 1.4766378 -9.1791153e-06 4.978564e-39
2.1348696 1.4750814 -9.0003014e-06 4.978564e-39
2.1471891 1.4735157 -9.5367432e-06 4.978564e-39
2.1554539 1.4747449 -8.9406967e-06 4.978564e-39
2.1637597 1.4759808 -9.059906e-06 4.978564e-39
2.2461779 1.4757547 -9.1393786e-06 4.978564e-39
2.4138556 1.4714938 -8.4638596e-06 4.978564e-39
0.87505895 1.4824268 -5.8114529e-06 4.978564e-39
0.88403404 1.4849508 -7.9035763e-06 4.978564e-39
0.8942405 1.4849617 -6.2823297e-06 4.978564e-39
0.90354329 1.4848806 -6.5565109e-06 4.978564e-39
0.91362995 1.4853493 -6.6323714e-06 4.978564e-39
0.92443007 1.4849079 -7.7724453e-06 4.978564e-39
0.93399274 1.4848225 -5.3167341e-06 4.978564e-39
0.94436526 1.4852985 -6.188046e-06 4.978564e-39
0.95547229 1.4848506 -7.522106e-06 4.978564e-39
0.96530855 1.4847643 -5.4955481e-06 4.978564e-39
0.97597849 1.4852471 -6.7515807e-06 4.978564e-39
0.98524553 1.4845954 -7.4505806e-06 4.978564e-39
0.99390078 1.4853809 -5.4240227e-06 4.978564e-39
1.005512 1.4849248 -8.0953942e-06 4.978564e-39
1.016198 1.4848706 -4.5431984e-06 4.978564e-39
1.0251963 1.4853907 -5.8071955e-06 4.978564e-39
1.0351822 1.485045 -7.0333481e-06 4.978564e-39
1.0457387 1.4849589 -7.1763993e-06 4.978564e-39
1.0558977 1.484607 -6.846019e-06 4.978564e-39
1.064852 1.4854549 -0.00048129974 4.978564e-39
1.0746036 1.4856614 -5.6709564e-06 4.978564e-39
1.0846335 1.4847522 -7.3512397e-06 4.978564e-39
1.0941795 1.4852871 -8.4638596e-06 4.978564e-39
1.1047745 1.4849286 -7.9393385e-06 4.978564e-39
1.1143694 1.4857591 -8.225441e-06 4.978564e-39
1.1248567 1.4845397 -7.0929527e-06 4.978564e-39
1.1346135 1.4853739 -5.8412552e-06 4.978564e-39
1.1448692 1.4846456 -6.1591468e-06 4.978564e-39
1.1552079 1.4849867 -7.9274178e-06 4.978564e-39
1.1656389 1.4853301 -6.5962472e-06 4.978564e-39
1.176156 1.4845904 -7.8082085e-06 4.978564e-39
1.1846374 1.4847589 -8.1062317e-06 4.978564e-39
1.1953229 1.4845538 -5.7220459e-06 4.978564e-39
1.2060987 1.4860024 -7.4505806e-06 4.978564e-39
1.2142193 1.4850137 -0.00031156646 4.978564e-39
1.2235398 1.4846911 -6.6757202e-06 4.978564e-39
1.2345695 1.4844853 -6.7949295e-06 4.978564e-39
1.2456912 1.4859556 -7.5101852e-06 4.978564e-39
1.2546618 1.4844507 -7.3313713e-06 4.978564e-39
1.2636226 1.4850321 -0.0012075638 4.978564e-39
1.2750857 1.4844146 -7.9472857e-06 4.978564e-39
1.2865689 1.4859062 -6.6161156e-06 4.978564e-39
1.2958342 1.484377 -6.7949295e-06 4.978564e-39
1.3056357 1.4855043 -7.4625013e-06 4.978564e-39
1.3145694 1.4847282 -8.7022781e-06 4.978564e-39
1.3240365 1.4849038 -6.4373016e-06 4.978564e-39
1.3335775 1.485082 -8.2850456e-06 4.978564e-39
1.3427041 1.4842951 -7.3432921e-06 4.978564e-39
1.3528677 1.4854416 -8.1658363e-06 4.978564e-39
1.3650721 1.4852291 -5.6475401e-06 4.978564e-39
1.3773866 1.4850174 -8.5830688e-06 4.978564e-39
1.3868256 1.4842196 -9.9658964e-06 4.978564e-39
1.3973321 1.4853808 -6.6757202e-06 4.978564e-39
1.4069135 1.4845775 -7.5578691e-06 4.978564e-39
1.4150332 1.4861536 -8.225441e-06 4.978564e-39
1.422695 1.4849509 -8.8214874e-06 4.978564e-39
1.4324551 1.4841335 -5.1259995e-06 4.978564e-39
1.4433316 1.48532 -7.212162e-06 4.978564e-39
1.4532484 1.4845041 -9.4175339e-06 4.978564e-39
1.4642892 1.4856972 -7.5896583e-06 4.978564e-39
1.4743557 1.4848719 -5.7458878e-06 4.978564e-39
1.4861084 1.4852639 -7.4148179e-06 4.978564e-39
1.4963384 1.4844307 -7.0333481e-06 4.978564e-39
1.5077331 1.4856453 -6.532669e-06 4.978564e-39
1.5153813 1.4852251 -7.7486038e-06 4.978564e-39
1.5230768 1.4848033 -9.059906e-06 4.978564e-39
1.5352471 1.4851978 -6.7234041e-06 4.978564e-39
1.5458475 1.4843512 -8.225441e-06 4.978564e-39
1.5576557 1.4855883 -8.4877011e-06 4.978564e-39
1.5655788 1.4851576 -7.390976e-06 4.978564e-39
1.5735537 1.4847273 -7.7962877e-06 4.978564e-39
1.586171 1.4851309 -7.4386598e-06 4.978564e-39
1.5942596 1.4846989 -1.0371208e-05 4.978564e-39
1.6023935 1.4842598 -7.9870224e-06 4.978564e-39
1.6146803 1.4855183 -6.9141388e-06 4.978564e-39
1.6258882 1.4846486 -6.532669e-06 4.978564e-39
1.6353925 1.4844198 -7.2717667e-06 4.978564e-39
1.6443654 1.4850529 -7.8678131e-06 4.978564e-39
1.6564113 1.4852538 -8.1658363e-06 4.978564e-39
1.6655079 1.4858943 -8.3446503e-06 4.978564e-39
1.674666 1.4845763 -7.2717667e-06 4.978564e-39
1.6838775 1.4852195 -7.9870224e-06 4.978564e-39
1.693772 1.4849881 -7.7962877e-06 4.978564e-39
1.7049786 1.4849726 -7.2717667e-06 4.978564e-39
1.7150095 1.4847381 -7.5101852e-06 4.978564e-39
1.7244825 1.4853902 -8.7618828e-06 4.978564e-39
1.7340072 1.484046 -8.5830688e-06 4.978564e-39
1.7436004 1.484699 -9.059906e-06 4.978564e-39
1.7564789 1.4849025 -6.8744025e-06 4.978564e-39
1.7662098 1.4855647 -7.5101852e-06 4.978564e-39
1.7766651 1.4853287 -7.9393385e-06 4.978564e-39
1.7858666 1.4848655 -8.4638596e-06 4.978564e-39
1.7957928 1.4855316 -7.6889992e-06 4.978564e-39
1.8057779 1.4841559 -7.9870224e-06 4.978564e-39
1.8158358 1.4848251 -8.3446503e-06 4.978564e-39
1.8259528 1.4855002 -9.2983246e-06 4.978564e-39
1.8368231 1.4852583 -8.6545942e-06 4.978564e-39
1.8463899 1.4847841 -7.5101852e-06 4.978564e-39
1.8532627 1.4859298 -7.2717667e-06 4.978564e-39
1.8636359 1.4845304 -9.149313e-06 4.978564e-39
1.8740667 1.4852132 -8.225441e-06 4.978564e-39
1.8838737 1.4847358 -8.5830688e-06 4.978564e-39
1.8951486 1.4844861 -8.4638596e-06 4.978564e-39
1.9058 1.4851755 -8.5830688e-06 4.978564e-39
1.9165143 1.4858699 -8.1062317e-06 4.978564e-39
1.9237019 1.484919 -9.059906e-06 4.978564e-39
1.935272 1.4846684 -9.2744831e-06 4.978564e-39
1.9454553 1.4863179 -8.1062317e-06 4.978564e-39
1.952774 1.4853592 -8.9406967e-06 4.978564e-39
1.9645569 1.4851083 -9.6797939e-06 4.978564e-39
1.9749268 1.4846138 -8.225441e-06 4.978564e-39
1.9861228 1.485321 -8.225441e-06 4.978564e-39
1.9973845 1.4838567 -6.3180923e-06 4.978564e-39
2.0049436 1.4850583 -8.3446503e-06 4.978564e-39
2.0125346 1.4862634 -8.225441e-06 4.978564e-39
2.0239911 1.4847908 -7.6293945e-06 4.978564e-39
2.0355227 1.4855126 -9.6559525e-06 4.978564e-39
2.0432544 1.4845229 -8.4638596e-06 4.978564e-39
2.0549262 1.4852436 -7.5101852e-06 4.978564e-39
2.0666773 1.4837537 -1.0728836e-05 4.978564e-39
2.0745554 1.4849768 -9.1791153e-06 4.978564e-39
2.0824735 1.486208 -9.5367432e-06 4.978564e-39
2.0950041 1.4841793 -0.00023941614 4.978564e-39
2.1064525 1.4854389 -9.5367432e-06 4.978564e-39
2.1145208 1.4866817 -8.7022781e-06 4.978564e-39
2.1226294 1.4856728 -9.1791153e-06 4.978564e-39
2.1348696 1.484149 -9.0003014e-06 4.978564e-39
2.1471891 1.4848913 -9.5367432e-06 4.978564e-39
2.1554539 1.4861479 -8.9406967e-06 4.978564e-39
2.1637597 1.4851253 -9.059906e-06 4.978564e-39
2.1721048 1.4863886 -8.4638596e-06 4.978564e-39
2.1847072 1.4894466 -9.8347664e-06 4.978564e-39
2.2058997 1.4868788 -9.5367432e-06 4.978564e-39
2.2144508 1.485842 -8.7022781e-06 4.978564e-39
2.2230437 1.4871252 -7.7486038e-06 4.978564e-39
2.2461779 1.4835606 -9.1393786e-06 4.978564e-39
0.88731265 1.4914869 -7.0333481e-06 4.978564e-39
0.89432263 1.4937376 -6.2435865e-06 4.978564e-39
0.90418029 1.4950747 -6.7840924e-06 4.978564e-39
0.91393632 1.495072 -6.5962472e-06 4.978564e-39
0.9237805 1.4950721 -7.8027897e-06 4.978564e-39
0.93467939 1.4946731 -5.5074693e-06 4.978564e-39
0.94468063 1.4951583 -6.4770379e-06 4.978564e-39
0.95480436 1.4951584 -7.2717667e-06 4.978564e-39
0.96601409 1.4947541 -4.9710275e-06 4.978564e-39
0.97630268 1.4952474 -6.6757202e-06 4.978564e-39
0.98524553 1.4951071 -7.4505806e-06 4.978564e-39
0.9942627 1.4949613 -5.364418e-06 4.978564e-39
1.0048144 1.4954646 -8.1181524e-06 4.978564e-39
1.0165678 1.4945476 -5.0544741e-06 4.978564e-39
1.0254623 1.4953851 -5.9604645e-06 4.978564e-39
1.034806 1.4952424 -6.4849855e-06 4.978564e-39
1.0461173 1.4947585 -7.0730844e-06 4.978564e-39
1.0553516 1.4953226 -6.2670028e-06 4.978564e-39
1.0652165 1.4944611 -7.1128211e-06 4.978564e-39
1.0748807 1.4958706 -5.543232e-06 4.978564e-39
1.0850252 1.4947181 -7.2479247e-06 4.978564e-39
1.0944614 1.4955816 -8.3446503e-06 4.978564e-39
1.1043761 1.4949076 -7.8280764e-06 4.978564e-39
1.1143695 1.4952847 -8.225441e-06 4.978564e-39
1.1244509 1.4951341 -6.9260595e-06 4.978564e-39
1.1346135 1.4949802 -5.8412552e-06 4.978564e-39
1.1448687 1.4948289 -6.1988831e-06 4.978564e-39
1.1552075 1.4946747 -7.3711076e-06 4.978564e-39
1.165639 1.4950604 -6.5962472e-06 4.978564e-39
1.1761562 1.4943628 -7.8082085e-06 4.978564e-39
1.1843334 1.4953158 -8.0892014e-06 4.978564e-39
1.1953238 1.4944038 -6.8744025e-06 4.978564e-39
1.2060987 1.4958943 -7.4505806e-06 4.978564e-39
1.2147892 1.4944482 -7.4505806e-06 4.978564e-39
1.2232262 1.4954154 -6.6076004e-06 4.978564e-39
1.2345695 1.4944909 -6.7949295e-06 4.978564e-39
1.2456912 1.4960057 -7.5101852e-06 4.978564e-39
1.2546607 1.4945353 -6.2584877e-06 4.978564e-39
1.2636973 1.4947462 -7.9274178e-06 4.978564e-39
1.2750859 1.4945821 -7.9472857e-06 4.978564e-39
1.2865688 1.4961196 -6.6161156e-06 4.978564e-39
1.2958342 1.4946274 -6.7949295e-06 4.978564e-39
1.3051676 1.494841 -7.6889992e-06 4.978564e-39
1.3145692 1.4950533 -8.7022781e-06 4.978564e-39
1.3235612 1.4943051 -6.1988831e-06 4.978564e-39
1.3335775 1.495483 -8.2850456e-06 4.978564e-39
1.3431865 1.4939599 -7.6293945e-06 4.978564e-39
1.3528666 1.4959183 -7.0929527e-06 4.978564e-39
1.3644577 1.4945347 -5.3495169e-06 4.978564e-39
1.3773866 1.4955935 -8.5830688e-06 4.978564e-39
1.3873243 1.4940475 -1.0073185e-05 4.978564e-39
1.3973321 1.4960364 -6.6757202e-06 4.978564e-39
1.4074197 1.4944795 -7.4505806e-06 4.978564e-39
1.4150332 1.4950924 -8.225441e-06 4.978564e-39
1.422695 1.4957076 -8.8214874e-06 4.978564e-39
1.4329726 1.4941317 -6.7949295e-06 4.978564e-39
1.4438511 1.495358 -6.8187715e-06 4.978564e-39
1.4537722 1.4945775 -9.4175339e-06 4.978564e-39
1.4648165 1.4958124 -6.8664549e-06 4.978564e-39
1.4748877 1.4950236 -5.8412552e-06 4.978564e-39
1.4850368 1.4942341 -8.1300732e-06 4.978564e-39
1.4963399 1.4954834 -8.5433321e-06 4.978564e-39
1.5066434 1.4946843 -6.1035157e-06 4.978564e-39
1.5153813 1.4944977 -7.7486038e-06 4.978564e-39
1.5236279 1.4951349 -9.0003014e-06 4.978564e-39
1.534137 1.4943279 -7.5817106e-06 4.978564e-39
1.5458475 1.4956002 -8.225441e-06 4.978564e-39
1.5565269 1.4947902 -8.4400181e-06 4.978564e-39
1.5655798 1.4945984 -8.3446503e-06 4.978564e-39
1.5741253 1.4952463 -8.1658363e-06 4.978564e-39
1.5850201 1.4944264 -8.0585478e-06 4.978564e-39
1.5942587 1.4961401 -9.4572706e-06 4.978564e-39
1.6029762 1.4948846 -7.7486038e-06 4.978564e-39
1.6146803 1.4951215 -6.9141388e-06 4.978564e-39
1.6264809 1.4953607 -6.6757202e-06 4.978564e-39
1.6353925 1.494092 -7.2717667e-06 4.978564e-39
1.6443655 1.4947549 -7.8678131e-06 4.978564e-39
1.6564113 1.4949957 -8.1658363e-06 4.978564e-39
1.6641183 1.4943613 -0.00095723174 4.978564e-39
1.6752789 1.4954708 -7.4863433e-06 4.978564e-39
1.6838775 1.4950529 -7.9870224e-06 4.978564e-39
1.6925319 1.4946331 -7.9393385e-06 4.978564e-39
1.706229 1.4950988 -7.2717667e-06 4.978564e-39
1.7150093 1.4946752 -7.5101852e-06 4.978564e-39
1.7244816 1.4953581 -8.0764294e-06 4.978564e-39
1.7340072 1.4940462 -8.5830688e-06 4.978564e-39
1.7436004 1.4947313 -9.059906e-06 4.978564e-39
1.7564795 1.4949782 -7.390976e-06 4.978564e-39
1.76621 1.4956721 -7.5101852e-06 4.978564e-39
1.7753553 1.4952433 -8.3208088e-06 4.978564e-39
1.7858666 1.4950385 -8.4638596e-06 4.978564e-39
1.7967615 1.4947184 -0.00069405022 4.978564e-39
1.8057779 1.4943951 -7.9870224e-06 4.978564e-39
1.8158357 1.4950978 -8.3446503e-06 4.978564e-39
1.8259529 1.4958066 -9.2983246e-06 4.978564e-39
1.8354601 1.4953678 -8.3923342e-06 4.978564e-39
1.8463899 1.4951584 -7.5101852e-06 4.978564e-39
1.8532627 1.4942477 -7.2717667e-06 4.978564e-39
1.8636352 1.4949617 -8.6029368e-06 4.978564e-39
1.8749475 1.4955916 -0.00036201728 4.978564e-39
1.8845763 1.4943016 -8.4638596e-06 4.978564e-39
1.8951486 1.4950227 -8.4638596e-06 4.978564e-39
1.9057992 1.4957467 -7.9274178e-06 4.978564e-39
1.9165143 1.4943562 -8.1062317e-06 4.978564e-39
1.9237019 1.4955506 -9.059906e-06 4.978564e-39
1.9338214 1.4950984 -9.0837475e-06 4.978564e-39
1.9454553 1.4948812 -8.1062317e-06 4.978564e-39
1.952774 1.4939419 -8.9406967e-06 4.978564e-39
1.9630783 1.4956324 -8.6307527e-06 4.978564e-39
1.9749268 1.4954158 -8.225441e-06 4.978564e-39
1.9861233 1.4939928 -8.5830688e-06 4.978564e-39
1.9973859 1.4947344 -7.1525574e-06 4.978564e-39
2.0049436 1.4959605 -8.3446503e-06 4.978564e-39
2.0125337 1.4950047 -7.6293945e-06 4.978564e-39
2.0240777 1.4945374 -0.00078444742 4.978564e-39
2.0342588 1.4956959 -0.0014535853 4.978564e-39
2.0432544 1.4955525 -8.4638596e-06 4.978564e-39
2.0549262 1.4940983 -7.5101852e-06 4.978564e-39
2.0666749 1.4948593 -8.9804334e-06 4.978564e-39
2.0745554 1.4961107 -9.1791153e-06 4.978564e-39
2.0824735 1.495136 -9.5367432e-06 4.978564e-39
2.0952232 1.4949106 -8.7022781e-06 4.978564e-39
2.1064525 1.4966789 -9.5367432e-06 4.978564e-39
2.1145225 1.4956963 -9.894371e-06 4.978564e-39
2.1226287 1.4947073 -8.5830688e-06 4.978564e-39
2.1356883 1.4944789 -9.1552738e-06 4.978564e-39
2.1471891 1.4962668 -9.5367432e-06 4.978564e-39
2.1554539 1.4952704 -8.9406967e-06 4.978564e-39
2.1637597 1.4942698 -9.059906e-06 4.978564e-39
2.1721048 1.4932636 -8.4638596e-06 4.978564e-39
2.1847053 1.4963458 -8.5830688e-06 4.978564e-39
2.197387 1.4948337 -7.8678131e-06 4.978564e-39
2.2058997 1.4938214 -9.5367432e-06 4.978564e-39
2.2149763 1.4954863 -0.0009560695 4.978564e-39
2.2230437 1.4964275 -7.7486038e-06 4.978564e-39
2.2933545 1.4928868 -6.5565109e-06 4.978564e-39
0.9047116 1.5026101 -6.4373016e-06 4.978564e-39
0.91424179 1.5047981 -5.884604e-06 4.978564e-39
0.92408985 1.5048413 -7.7883406e-06 4.978564e-39
0.9340238 1.5048821 -5.5378132e-06 4.978564e-39
0.94499528 1.5050219 -6.4047899e-06 4.978564e-39
0.95512241 1.5050658 -7.390976e-06 4.978564e-39
0.96547705 1.5053753 -0.00020702135 4.978564e-39
0.97665918 1.5047565 -6.5922736e-06 4.978564e-39
0.98524433 1.5056165 -5.6624413e-06 4.978564e-39
0.99462509 1.5045465 -5.4359434e-06 4.978564e-39
1.0051799 1.5050926 -8.1062317e-06 4.978564e-39
1.0158638 1.5051372 -6.7299061e-06 4.978564e-39
1.0247694 1.5051116 -0.0013382807 4.978564e-39
1.0344317 1.5054361 -6.6280363e-06 4.978564e-39
1.0465158 1.5043591 -0.00022462741 4.978564e-39
1.0556256 1.5054508 -7.7088671e-06 4.978564e-39
1.0656009 1.5043451 -5.7816505e-06 4.978564e-39
1.0748808 1.5052384 -5.543232e-06 4.978564e-39
1.0843009 1.5050557 -0.00038205794 4.978564e-39
1.0944614 1.5050277 -8.3446503e-06 4.978564e-39
1.1043755 1.50492 -7.6293945e-06 4.978564e-39
1.1143693 1.5048102 -8.225441e-06 4.978564e-39
1.1244515 1.5052319 -7.1128211e-06 4.978564e-39
1.1346135 1.5045867 -5.8412552e-06 4.978564e-39
1.1444576 1.5055088 -6.1273577e-06 4.978564e-39
1.1552066 1.5043621 -6.2584877e-06 4.978564e-39
1.16522 1.5052912 -6.3061716e-06 4.978564e-39
1.1761559 1.5041351 -7.8082085e-06 4.978564e-39
1.1846374 1.5060043 -8.1062317e-06 4.978564e-39
1.1953238 1.5042529 -6.8744025e-06 4.978564e-39
1.2060987 1.5057863 -7.4505806e-06 4.978564e-39
1.2147892 1.504375 -7.4505806e-06 4.978564e-39
1.2235398 1.5062732 -6.6757202e-06 4.978564e-39
1.2345695 1.5044963 -6.7949295e-06 4.978564e-39
1.2456912 1.5060558 -7.5101852e-06 4.978564e-39
1.2546604 1.5046207 -5.7220459e-06 4.978564e-39
1.2636973 1.5048681 -7.9274178e-06 4.978564e-39
1.275086 1.5047498 -8.3181594e-06 4.978564e-39
1.2870297 1.5055792 -5.8412552e-06 4.978564e-39
1.2958342 1.5048777 -6.7949295e-06 4.978564e-39
1.3051676 1.5051285 -7.6889992e-06 4.978564e-39
1.3145692 1.5053784 -8.7022781e-06 4.978564e-39
1.3240365 1.503901 -6.4373016e-06 4.978564e-39
1.3335775 1.5058842 -8.2850456e-06 4.978564e-39
1.3431864 1.5043993 -7.6293945e-06 4.978564e-39
1.3533522 1.5056238 -6.7472456e-06 4.978564e-39
1.3650712 1.5045261 -5.5233636e-06 4.978564e-39
1.3778814 1.5053899 -8.4638596e-06 4.978564e-39
1.3873243 1.5046631 -1.0073185e-05 4.978564e-39
1.3978342 1.5059066 -6.3896177e-06 4.978564e-39
1.4074197 1.5051755 -7.4505806e-06 4.978564e-39
1.4150332 1.5040311 -8.225441e-06 4.978564e-39
1.423207 1.505672 -8.7976459e-06 4.978564e-39
1.4329728 1.5049299 -6.7949295e-06 4.978564e-39
1.4428121 1.504187 -7.6055526e-06 4.978564e-39
1.4537722 1.5054587 -9.4175339e-06 4.978564e-39
1.463761 1.5047089 -7.3194506e-06 4.978564e-39
1.47542 1.505181 -5.9366225e-06 4.978564e-39
1.4855728 1.5044266 -7.9274178e-06 4.978564e-39
1.496882 1.5057217 -1.0108948e-05 4.978564e-39
1.5071889 1.5049582 -7.0929527e-06 4.978564e-39
1.515378 1.503767 -4.7683716e-06 4.978564e-39
1.524179 1.5054725 -8.9406967e-06 4.978564e-39
1.5346922 1.504702 -7.1525574e-06 4.978564e-39
1.5458475 1.5049741 -8.225441e-06 4.978564e-39
1.5570902 1.5052463 -7.2717667e-06 4.978564e-39
1.5655798 1.5040382 -8.3446503e-06 4.978564e-39
1.5746968 1.5057709 -8.4400181e-06 4.978564e-39
1.5855962 1.5049895 -8.4042549e-06 4.978564e-39
1.5942564 1.5056734 -7.6293945e-06 4.978564e-39
1.6035591 1.5055158 -7.8439716e-06 4.978564e-39
1.6146803 1.5047246 -6.9141388e-06 4.978564e-39
1.6264808 1.5050031 -6.6757202e-06 4.978564e-39
1.6353925 1.5056986 -7.2717667e-06 4.978564e-39
1.6443654 1.5044569 -7.8678131e-06 4.978564e-39
1.6564114 1.5047379 -8.1658363e-06 4.978564e-39
1.6655089 1.5054401 -9.2983246e-06 4.978564e-39
1.6747488 1.5056869 -0.00099598628 4.978564e-39
1.6838775 1.5048864 -7.9870224e-06 4.978564e-39
1.6931525 1.5055939 -8.3446503e-06 4.978564e-39
1.7049787 1.5047801 -7.2956086e-06 4.978564e-39
1.7150095 1.5046122 -7.5101852e-06 4.978564e-39
1.7244807 1.5053262 -7.390976e-06 4.978564e-39
1.7340072 1.5040464 -8.5830688e-06 4.978564e-39
1.7436004 1.5047636 -9.059906e-06 4.978564e-39
1.7564796 1.5050532 -7.390976e-06 4.978564e-39
1.7662098 1.5057795 -7.5101852e-06 4.978564e-39
1.7760108 1.5044826 -8.5234642e-06 4.978564e-39
1.7858683 1.5052128 -9.7751617e-06 4.978564e-39
1.7951292 1.504807 -7.7009199e-06 4.978564e-39
1.8057779 1.5046344 -7.9870224e-06 4.978564e-39
1.8150027 1.5051228 -0.00074590615 4.978564e-39
1.8259528 1.5061129 -9.2983246e-06 4.978564e-39
1.8361416 1.5047894 -8.5234642e-06 4.978564e-39
1.8463899 1.5055329 -7.5101852e-06 4.978564e-39
1.8532625 1.5046449 -7.2717667e-06 4.978564e-39
1.8636346 1.505393 -8.1658363e-06 4.978564e-39
1.8740684 1.5040542 -9.5367432e-06 4.978564e-39
1.8845773 1.5048038 -9.059906e-06 4.978564e-39
1.8951486 1.5055594 -8.4638596e-06 4.978564e-39
1.9057987 1.5042042 -7.5995922e-06 4.978564e-39
1.9165143 1.5049639 -8.1062317e-06 4.978564e-39
1.9237019 1.5061823 -9.059906e-06 4.978564e-39
1.9345467 1.5048181 -9.1791153e-06 4.978564e-39
1.9454552 1.5055852 -8.1062317e-06 4.978564e-39
1.952774 1.5046703 -8.9406967e-06 4.978564e-39
1.9638164 1.5054407 -8.4042549e-06 4.978564e-39
1.9749268 1.5040575 -8.225441e-06 4.978564e-39
1.9861232 1.5048323 -8.5830688e-06 4.978564e-39
1.9973882 1.5056131 -8.8214874e-06 4.978564e-39
2.0049436 1.5046821 -8.3446503e-06 4.978564e-39
2.0125337 1.5037465 -7.6293945e-06 4.978564e-39
2.0232248 1.505501 -7.7486038e-06 4.978564e-39
2.0355227 1.5053196 -9.6559525e-06 4.978564e-39
2.0432544 1.5043762 -8.4638596e-06 4.978564e-39
2.0557065 1.5041876 -7.3432921e-06 4.978564e-39
2.0666735 1.5059659 -8.1062317e-06 4.978564e-39
2.0737445 1.5037614 -0.00033764503 4.978564e-39
2.0824735 1.5040641 -9.5367432e-06 4.978564e-39
2.0936244 1.5058558 -8.4638596e-06 4.978564e-39
2.1064525 1.5056708 -9.5367432e-06 4.978564e-39
2.1145225 1.5047097 -9.894371e-06 4.978564e-39
2.1226277 1.5037416 -7.9870224e-06 4.978564e-39
2.1340518 1.5055567 -9.5605847e-06 4.978564e-39
2.1471891 1.5053673 -9.5367432e-06 4.978564e-39
2.1554539 1.5043927 -8.9406967e-06 4.978564e-39
2.1637597 1.5034144 -9.059906e-06 4.978564e-39
2.1721048 1.5024303 -8.4638596e-06 4.978564e-39
2.1847053 1.5055461 -8.5830688e-06 4.978564e-39
2.197387 1.5040678 -7.8678131e-06 4.978564e-39
2.2058997 1.5030781 -9.5367432e-06 4.978564e-39
2.2144508 1.5067208 -8.7022781e-06 4.978564e-39
2.2230437 1.5057299 -7.7486038e-06 4.978564e-39
2.2933545 1.5023764 -6.5565109e-06 4.978564e-39
0.9173063 1.5119114 -6.1988831e-06 4.978564e-39
0.92484546 1.5137973 -7.8545672e-06 4.978564e-39
0.93467933 1.5152248 -5.5074693e-06 4.978564e-39
0.94433433 1.5152757 -6.5565109e-06 4.978564e-39
0.95544028 1.5149777 -7.4993482e-06 4.978564e-39
0.96566081 1.5150636 -4.9273171e-06 4.978564e-39
0.97597861 1.5151565 -6.7515807e-06 4.978564e-39
0.98524427 1.5146261 -5.6624413e-06 4.978564e-39
0.99393332 1.5150298 -5.2993946e-06 4.978564e-39
1.0055457 1.5147259 -8.3088871e-06 4.978564e-39
1.0161996 1.5153177 -6.5565109e-06 4.978564e-39
1.0257281 1.5145547 -6.1137334e-06 4.978564e-39
1.0348066 1.5151914 -6.7154565e-06 4.978564e-39
1.0461171 1.5148083 -7.3194506e-06 4.978564e-39
1.055626 1.5147425 -8.2850456e-06 4.978564e-39
1.0648656 1.515157 -6.1230226e-06 4.978564e-39
1.0748808 1.5146064 -5.543232e-06 4.978564e-39
1.0842429 1.515548 -8.2612041e-06 4.978564e-39
1.094461 1.514473 -7.7684717e-06 4.978564e-39
1.1039782 1.5154194 -7.915497e-06 4.978564e-39
1.1143694 1.5143358 -8.225441e-06 4.978564e-39
1.124047 1.5152884 -7.3194506e-06 4.978564e-39
1.1346135 1.5141929 -5.8412552e-06 4.978564e-39
1.1448691 1.5157297 -6.1723922e-06 4.978564e-39
1.1552064 1.5140508 -6.2584877e-06 4.978564e-39
1.1656389 1.5156003 -6.5962472e-06 4.978564e-39
1.176156 1.5139074 -7.8082085e-06 4.978564e-39
1.1846365 1.5158092 -7.0730844e-06 4.978564e-39
1.1957532 1.5146908 -6.7949295e-06 4.978564e-39
1.2060989 1.515678 -7.4505806e-06 4.978564e-39
1.214789 1.5143014 -7.4505806e-06 4.978564e-39
1.2235398 1.5162348 -6.6757202e-06 4.978564e-39
1.2345694 1.514502 -6.7949295e-06 4.978564e-39
1.2456912 1.5161058 -7.5101852e-06 4.978564e-39
1.2546604 1.5147066 -5.7220459e-06 4.978564e-39
1.2636973 1.5149902 -7.9274178e-06 4.978564e-39
1.2750869 1.514918 -9.059906e-06 4.978564e-39
1.2865678 1.5148444 -5.543232e-06 4.978564e-39
1.2958342 1.515128 -6.7949295e-06 4.978564e-39
1.3046994 1.5144584 -7.915497e-06 4.978564e-39
1.3145702 1.5157046 -9.735425e-06 4.978564e-39
1.3240366 1.514264 -6.4373016e-06 4.978564e-39
1.3340565 1.5155207 -8.5592274e-06 4.978564e-39
1.3431864 1.5148388 -7.6293945e-06 4.978564e-39
1.3523811 1.5141546 -7.4386598e-06 4.978564e-39
1.3650711 1.5150529 -5.5233636e-06 4.978564e-39
1.3773866 1.5149846 -8.5830688e-06 4.978564e-39
1.3873228 1.5152774 -8.5830688e-06 4.978564e-39
1.3968298 1.5145814 -6.9618227e-06 4.978564e-39
1.4074197 1.5158714 -7.4505806e-06 4.978564e-39
1.4150332 1.5147575 -8.225441e-06 4.978564e-39
1.4221828 1.5144289 -8.8453289e-06 4.978564e-39
1.4329728 1.5157279 -6.7949295e-06 4.978564e-39
1.4433316 1.514225 -7.212162e-06 4.978564e-39
1.4542961 1.5155398 -9.4175339e-06 4.978564e-39
1.4642886 1.5148249 -7.0929527e-06 4.978564e-39
1.4743557 1.5141075 -5.7458878e-06 4.978564e-39
1.4855727 1.5154349 -7.9274178e-06 4.978564e-39
1.4958009 1.5147177 -9.9182125e-06 4.978564e-39
1.5077324 1.5152357 -6.0081484e-06 4.978564e-39
1.5153807 1.5148969 -7.2320304e-06 4.978564e-39
1.5230758 1.5145568 -8.1777571e-06 4.978564e-39
1.5356127 1.5150093 -0.0012460753 4.978564e-39
1.5458475 1.5143481 -8.225441e-06 4.978564e-39
1.5576545 1.5157098 -7.2956086e-06 4.978564e-39
1.5655798 1.515366 -8.3446503e-06 4.978564e-39
1.5735543 1.51502 -8.3684918e-06 4.978564e-39
1.5861719 1.5155582 -8.225441e-06 4.978564e-39
1.5942564 1.5152086 -7.6293945e-06 4.978564e-39
1.6023934 1.5148588 -7.7962877e-06 4.978564e-39
1.6152687 1.5154018 -7.5101852e-06 4.978564e-39
1.6264809 1.5146456 -6.6757202e-06 4.978564e-39
1.6353925 1.5153705 -7.2717667e-06 4.978564e-39
1.6449652 1.5152431 -7.7962877e-06 4.978564e-39
1.6564115 1.51448 -8.1658363e-06 4.978564e-39
1.665509 1.5152123 -9.2983246e-06 4.978564e-39
1.6752793 1.5150812 -8.1062317e-06 4.978564e-39
1.6838775 1.51472 -7.9870224e-06 4.978564e-39
1.6931528 1.5154586 -8.5830688e-06 4.978564e-39
1.7062299 1.5149152 -7.8439716e-06 4.978564e-39
1.7150106 1.5145503 -8.384387e-06 4.978564e-39
1.7244807 1.5152947 -7.390976e-06 4.978564e-39
1.7340072 1.5140468 -8.5830688e-06 4.978564e-39
1.7436004 1.5147958 -9.059906e-06 4.978564e-39
1.7564795 1.5151284 -7.390976e-06 4.978564e-39
1.76621 1.5158871 -7.5101852e-06 4.978564e-39
1.7760096 1.5146217 -7.6492624e-06 4.978564e-39
1.7858683 1.5153856 -9.7751617e-06 4.978564e-39
1.7964576 1.5152497 -8.4638596e-06 4.978564e-39
1.8057779 1.5148735 -7.9870224e-06 4.978564e-39
1.8158362 1.5156435 -8.7320805e-06 4.978564e-39
1.8259528 1.514358 -9.2983246e-06 4.978564e-39
1.8361416 1.5151297 -8.5234642e-06 4.978564e-39
1.8463899 1.5159072 -7.5101852e-06 4.978564e-39
1.8532627 1.5150421 -7.2717667e-06 4.978564e-39
1.8643267 1.5149032 -7.1525574e-06 4.978564e-39
1.8740684 1.5145206 -9.5367432e-06 4.978564e-39
1.8845773 1.5153053 -9.059906e-06 4.978564e-39
1.8951486 1.5139887 -8.4638596e-06 4.978564e-39
1.9057993 1.5147766 -7.9274178e-06 4.978564e-39
1.9165163 1.5155731 -9.4175339e-06 4.978564e-39
1.9237019 1.5146877 -9.059906e-06 4.978564e-39
1.935272 1.5145447 -9.2744831e-06 4.978564e-39
1.9454553 1.5162892 -8.1062317e-06 4.978564e-39
1.952774 1.5153987 -8.9406967e-06 4.978564e-39
1.9638155 1.5140522 -7.7486038e-06 4.978564e-39
1.9749268 1.5148597 -8.225441e-06 4.978564e-39
1.9861233 1.5156716 -8.5830688e-06 4.978564e-39
1.9973882 1.5143147 -8.8214874e-06 4.978564e-39
2.0049436 1.5155841 -8.3446503e-06 4.978564e-39
2.0125346 1.5146745 -8.225441e-06 4.978564e-39
2.0239921 1.5154948 -8.3446503e-06 4.978564e-39
2.0355227 1.5141227 -9.6559525e-06 4.978564e-39
2.0432556 1.5154066 -9.3380613e-06 4.978564e-39
2.0541458 1.5150007 -7.6770784e-06 4.978564e-39
2.0666735 1.514852 -8.1062317e-06 4.978564e-39
2.0745544 1.513924 -8.5830688e-06 4.978564e-39
2.0824735 1.5152243 -9.5367432e-06 4.978564e-39
2.0944238 1.516063 -8.5830688e-06 4.978564e-39
2.1045449 1.5164138 -0.0011243025 4.978564e-39
2.1145225 1.5137231 -9.894371e-06 4.978564e-39
2.1226277 1.5150353 -7.9870224e-06 4.978564e-39
2.1348705 1.5158863 -9.5963478e-06 4.978564e-39
2.147191 1.5144689 -1.0728836e-05 4.978564e-39
2.1554539 1.5135152 -8.9406967e-06 4.978564e-39
2.1637604 1.5148454 -9.4970064e-06 4.978564e-39
2.1889193 1.5119638 -8.7022781e-06 4.978564e-39
2.197387 1.5109934 -7.8678131e-06 4.978564e-39
0.93502223 1.5228002 -5.9843064e-06 4.978564e-39
0.94502735 1.5251822 -6.7949295e-06 4.978564e-39
0.95477283 1.5252762 -7.2717667e-06 4.978564e-39
0.96598202 1.5250241 -5.3860927e-06 4.978564e-39
0.97630268 1.525161 -6.6757202e-06 4.978564e-39
0.98524427 1.5251378 -5.6624413e-06 4.978564e-39
0.9942627 1.5251142 -5.364418e-06 4.978564e-39
1.004847 1.5252563 -8.07372e-06 4.978564e-39
1.0165684 1.5249984 -6.1273577e-06 4.978564e-39
1.0251963 1.5251247 -5.8071955e-06 4.978564e-39
1.0351822 1.5249518 -7.0333481e-06 4.978564e-39
1.0457385 1.525048 -6.8187715e-06 4.978564e-39
1.0558989 1.5248743 -8.32762e-06 4.978564e-39
1.0652156 1.525557 -5.9604645e-06 4.978564e-39
1.0751581 1.5248213 -5.4155075e-06 4.978564e-39
1.0846343 1.525516 -8.5433321e-06 4.978564e-39
1.0947417 1.524772 -6.2499726e-06 4.978564e-39
1.1043761 1.5254706 -7.8280764e-06 4.978564e-39
1.1146563 1.5247232 -8.3105906e-06 4.978564e-39
1.1244534 1.5254269 -9.3777971e-06 4.978564e-39
1.1349055 1.5246687 -6.0626439e-06 4.978564e-39
1.1448693 1.5253772 -6.1988831e-06 4.978564e-39
1.155503 1.5246159 -6.0456141e-06 4.978564e-39
1.165639 1.5253305 -6.5962472e-06 4.978564e-39
1.1764576 1.5245636 -7.578305e-06 4.978564e-39
1.1846361 1.5256147 -6.5565109e-06 4.978564e-39
1.1953237 1.5250468 -6.8744025e-06 4.978564e-39
1.2060989 1.52557 -7.4505806e-06 4.978564e-39
1.2147892 1.5242281 -7.4505806e-06 4.978564e-39
1.2235398 1.5261964 -6.6757202e-06 4.978564e-39
1.2345695 1.5245076 -6.7949295e-06 4.978564e-39
1.2456912 1.5261558 -7.5101852e-06 4.978564e-39
1.2546604 1.5247926 -5.7220459e-06 4.978564e-39
1.2636973 1.5251122 -7.9274178e-06 4.978564e-39
1.2750869 1.5250854 -9.059906e-06 4.978564e-39
1.2865673 1.5250572 -5.0067902e-06 4.978564e-39
1.2958342 1.5253783 -6.7949295e-06 4.978564e-39
1.3051676 1.5239877 -7.6889992e-06 4.978564e-39
1.3145707 1.5260304 -1.0251999e-05 4.978564e-39
1.3240366 1.5246269 -6.4373016e-06 4.978564e-39
1.3335775 1.5249544 -8.2850456e-06 4.978564e-39
1.3431864 1.5252782 -7.6293945e-06 4.978564e-39
1.3528672 1.5238606 -7.6293945e-06 4.978564e-39
1.3650713 1.5255797 -5.5233636e-06 4.978564e-39
1.3768917 1.524574 -8.7022781e-06 4.978564e-39
1.3873228 1.5258931 -8.5830688e-06 4.978564e-39
1.3973321 1.5244516 -6.6757202e-06 4.978564e-39
1.4079258 1.5257828 -7.3432921e-06 4.978564e-39
1.4150332 1.5254837 -8.225441e-06 4.978564e-39
1.4226948 1.5243931 -8.8214874e-06 4.978564e-39
1.4334891 1.5257343 -7.2240828e-06 4.978564e-39
1.4433316 1.5250645 -7.212162e-06 4.978564e-39
1.4532484 1.5243939 -9.4175339e-06 4.978564e-39
1.4642887 1.5257479 -7.0929527e-06 4.978564e-39
1.4748878 1.5242648 -5.8412552e-06 4.978564e-39
1.4861088 1.5256354 -7.7247623e-06 4.978564e-39
1.4963416 1.5249547 -1.001358e-05 4.978564e-39
1.5066442 1.5242647 -7.0333481e-06 4.978564e-39
1.5153829 1.5260262 -9.2983246e-06 4.978564e-39
1.5236264 1.5248941 -7.7883406e-06 4.978564e-39
1.5341377 1.5242008 -8.1539156e-06 4.978564e-39
1.5458479 1.5255972 -8.4837275e-06 4.978564e-39
1.5565256 1.5248997 -7.2479247e-06 4.978564e-39
1.5655798 1.5248055 -8.3446503e-06 4.978564e-39
1.5741256 1.5255446 -8.4042549e-06 4.978564e-39
1.5850207 1.5248411 -8.5830688e-06 4.978564e-39
1.5942564 1.5247438 -7.6293945e-06 4.978564e-39
1.6029754 1.5254893 -7.0929527e-06 4.978564e-39
1.6140935 1.5247791 -7.7486038e-06 4.978564e-39
1.627074 1.5253686 -7.3432921e-06 4.978564e-39
1.6353937 1.5250438 -8.225441e-06 4.978564e-39
1.6437658 1.524717 -7.9393385e-06 4.978564e-39
1.657016 1.5253127 -7.9870224e-06 4.978564e-39
1.6655089 1.5249847 -9.2983246e-06 4.978564e-39
1.6740545 1.5246532 -7.9870224e-06 4.978564e-39
1.6838775 1.5245534 -7.9870224e-06 4.978564e-39
1.6931523 1.5253224 -8.1459684e-06 4.978564e-39
1.7049797 1.5245883 -8.1300732e-06 4.978564e-39
1.7147031 1.5247847 -0.00055843726 4.978564e-39
1.7244812 1.5252638 -7.8280764e-06 4.978564e-39
1.7340072 1.5240473 -8.5830688e-06 4.978564e-39
1.7436004 1.5248281 -9.059906e-06 4.978564e-39
1.7564794 1.5252036 -7.390976e-06 4.978564e-39
1.7662098 1.5259945 -7.5101852e-06 4.978564e-39
1.7760091 1.5247613 -7.212162e-06 4.978564e-39
1.7858683 1.5255586 -9.7751617e-06 4.978564e-39
1.79513 1.525215 -8.225441e-06 4.978564e-39
1.8057779 1.5251126 -7.9870224e-06 4.978564e-39
1.8165089 1.5250123 -8.9406967e-06 4.978564e-39
1.8259541 1.5246654 -1.0251999e-05 4.978564e-39
1.8361416 1.52547 -8.5234642e-06 4.978564e-39
1.8463899 1.5242066 -7.5101852e-06 4.978564e-39
1.8532625 1.5254393 -7.2717667e-06 4.978564e-39
1.8629396 1.5250893 -7.081032e-06 4.978564e-39
1.8740684 1.5249871 -9.5367432e-06 4.978564e-39
1.88528 1.5248823 -9.059906e-06 4.978564e-39
1.8951486 1.5245253 -8.4638596e-06 4.978564e-39
1.9057992 1.5253487 -7.9274178e-06 4.978564e-39
1.9165163 1.5240593 -9.4175339e-06 4.978564e-39
1.9237007 1.5253185 -8.1857042e-06 4.978564e-39
1.9338223 1.5249618 -9.6082686e-06 4.978564e-39
1.9454553 1.5248525 -8.1062317e-06 4.978564e-39
1.952774 1.5239816 -8.9406967e-06 4.978564e-39
1.9638146 1.5248166 -7.0929527e-06 4.978564e-39
1.9749268 1.5256618 -8.225441e-06 4.978564e-39
1.9861232 1.5243433 -8.5830688e-06 4.978564e-39
1.9973884 1.5251917 -8.8612242e-06 4.978564e-39
2.0049436 1.5264863 -8.3446503e-06 4.978564e-39
2.0125346 1.5256017 -8.225441e-06 4.978564e-39
2.0239921 1.5242672 -8.3446503e-06 4.978564e-39
2.0365088 1.5255075 -0.00041637284 4.978564e-39
2.0432582 1.5264382 -1.1086464e-05 4.978564e-39
2.0549266 1.5250903 -7.8082085e-06 4.978564e-39
2.0666735 1.5237379 -8.1062317e-06 4.978564e-39
2.0745535 1.5250572 -7.9870224e-06 4.978564e-39
2.0824735 1.5263844 -9.5367432e-06 4.978564e-39
2.0944238 1.5250229 -8.5830688e-06 4.978564e-39
2.1064525 1.5236547 -9.5367432e-06 4.978564e-39
2.1145225 1.52499 -9.894371e-06 4.978564e-39
2.1226277 1.5263292 -7.9870224e-06 4.978564e-39
2.1348705 1.5249538 -9.5963478e-06 4.978564e-39
2.147191 1.5235693 -1.0728836e-05 4.978564e-39
2.1554539 1.5249182 -8.9406967e-06 4.978564e-39
2.1637616 1.5262771 -1.0371208e-05 4.978564e-39
2.2230437 1.5266603 -7.7486038e-06 4.978564e-39
2.2316804 1.5257173 -7.6293945e-06 4.978564e-39
2.2844167 1.5294291 -1.001358e-05 4.978564e-39
2.2933581 1.5284753 -8.9406967e-06 4.978564e-39
0.94641137 1.5317311 -6.0796738e-06 4.978564e-39
0.95555937 1.5342547 -7.5399876e-06 4.978564e-39
0.96530902 1.5353696 -6.2108038e-06 4.978564e-39
0.97665918 1.5346749 -6.5922736e-06 4.978564e-39
0.98524433 1.5356493 -5.6624413e-06 4.978564e-39
0.99462527 1.5347048 -5.8054925e-06 4.978564e-39
1.0051799 1.5353909 -8.1857042e-06 4.978564e-39
1.0161984 1.5351073 -5.51939e-06 4.978564e-39
1.0254623 1.5351238 -5.9604645e-06 4.978564e-39
1.0348055 1.5351421 -5.7697298e-06 4.978564e-39
1.0461173 1.5348547 -7.0730844e-06 4.978564e-39
1.0553532 1.5355808 -8.2424713e-06 4.978564e-39
1.0652156 1.5348865 -5.9604645e-06 4.978564e-39
1.0746036 1.535617 -5.6709564e-06 4.978564e-39
1.0846344 1.5349228 -8.5433321e-06 4.978564e-39
1.0941783 1.5356585 -6.9822586e-06 4.978564e-39
1.1043761 1.5349562 -7.8280764e-06 4.978564e-39
1.1143694 1.5349759 -8.225441e-06 4.978564e-39
1.1244528 1.5349917 -8.6360506e-06 4.978564e-39
1.1346135 1.5350081 -5.8412552e-06 4.978564e-39
1.1448692 1.5350245 -6.1988831e-06 4.978564e-39
1.1552066 1.5350443 -6.2584877e-06 4.978564e-39
1.1656399 1.5350623 -7.7486038e-06 4.978564e-39
1.176156 1.5350822 -7.8082085e-06 4.978564e-39
